ncols 444
nrows 32
xllcorner    520084
yllcorner    271214
cellsize     2
NODATA_value -9999
18.49 19.84 19.278 14.685 13.125 11.905 11.898 12.792 13.64 13.142 12.985 12.96 12.323 11.97 11.955 11.972 11.983 12.007 12.03 12.033 12 11.987 11.995 11.997 11.997 12.003 11.983 12 11.99 11.993 11.972 11.952 11.903 11.86 11.87 12.368 14.295 15.215 14.392 13.9 13.818 13.13 13.01 13.02 13.292 12.938 12.917 12.913 12.925 12.94 13.51 19.42 20.052 19.673 19.31 18.952 18.56 13.32 13.105 13.057 13.253 13.302 12.97 12.898 12.95 12.935 12.91 13.08 13.185 13.163 13.1 13.097 13.065 16.833 19.515 20.745 19.657 15.75 13.052 13.038 13.123 14.075 16.205 14.045 13.453 13.212 13.445 14.415 13.398 13.03 13.005 13.023 13.023 13.04 13.193 13.078 12.995 13.33 13.068 13.097 13.233 13.587 13.705 13.29 13.32 13.337 13.483 13.403 13.32 13.27 13.693 15.648 15.608 14.43 13.295 13.333 13.405 13.312 13.323 13.307 13.45 13.7 13.71 13.807 15.352 17.5 17.853 18.173 18.298 18.185 17.89 17.517 17.18 14.875 15.013 14.733 15.06 13.705 13.773 13.798 13.807 13.798 13.753 13.765 13.698 13.54 13.462 13.398 13.292 13.345 13.368 13.375 13.37 13.365 13.347 13.318 13.3 13.262 13.222 13.215 13.177 13.145 13.113 13.148 13.205 13.278 13.507 13.705 13.875 14.243 14.262 14.288 13.525 13.038 13.177 13.012 13.003 13.055 14.105 13.118 13.792 14.153 14.29 16.835 18.307 17.505 18.935 19.41 18.71 15.07 13.057 12.458 12.28 12.29 12.795 12.493 12.347 12.207 15.083 18.83 19.755 18.603 14.948 12.222 12.475 12.642 12.9 13.005 15.517 17.875 18.415 18.157 17.81 17.968 18.395 18.64 18.67 18.222 12.833 12.93 12.96 20.17 20.272 20.237 20.243 20.217 19.905 13.403 14.163 13.212 13.193 13.642 13.94 13.475 13.5 14.01 18.865 19.955 20.72 19.798 17.163 13.532 13.382 14.065 13.323 13.363 13.462 13.605 13.53 15.372 14.895 13.51 13.575 13.842 14.915 14.102 15.26 14.577 13.95 13.503 14.84 15.952 15.745 13.615 13.56 13.435 13.438 13.505 14.608 15.965 16.118 14.472 14.222 15.03 19.12 20.548 21.097 20.215 17.355 14.005 14.03 14.042 14.06 13.887 14.957 16.075 15.115 13.943 13.905 13.868 13.875 13.915 15.358 16.255 16.285 14.953 19.335 20.628 21 20.938 20.507 20.03 18.138 14.29 13.997 13.908 14 14.278 14.747 14.648 17.052 16.03 15.148 17.9 14.98 14.372 14.188 13.748 17.73 16.23 14.51 14.812 17.873 14.102 14.932 15.797 15.047 13.7 13.852 13.908 13.908 13.913 13.95 13.98 14.002 13.943 13.93 13.965 13.975 13.985 13.967 13.972 13.96 13.955 13.97 14.04 14.108 14.175 14.11 13.812 13.54 13.368 13.19 14.462 13.295 13.395 13.815 13.128 12.895 12.87 12.86 12.858 12.86 12.86 12.84 13.188 14.557 12.828 12.795 12.82 12.815 12.802 12.798 12.77 13.028 13.025 12.135 11.892 11.98 12.202 12.18 11.8 11.76 11.712 11.765 11.722 11.74 11.738 11.765 11.827 11.885 11.927 11.94 11.958 11.993 12.047 12.077 12.142 12.215 12.3 12.438 12.548 12.703 12.78 12.568 12.555 12.535 12.525 12.48 12.422 12.375 12.343 12.333 12.342 12.38 12.403 12.438 12.495 12.488 12.452 12.438 12.363 12.323 12.27 12.305 12.31 12.33 12.365 12.467 12.74 12.865 12.8 12.655 12.597 12.587 12.542 12.48 12.462 12.465 12.438 12.392 12.335 12.642 13.872
20.08 20.907 21.05 20.07 14.467 11.917 11.865 12.418 13.023 13.193 13.513 13.85 12.778 11.965 11.958 11.948 11.965 11.987 11.995 11.997 11.975 11.968 11.967 11.98 11.988 11.98 11.997 12.02 12.583 11.975 11.972 11.938 11.882 11.845 11.975 13.783 17.382 14.585 14.648 13.938 14.823 14.422 13.325 12.975 13.712 14.105 13.057 12.92 12.948 12.97 14.545 19.882 20.25 20.435 20.388 20.097 18.995 13.64 13.097 13.135 13.07 13.045 12.94 12.938 12.94 12.895 12.972 13.083 13.087 13.1 13.065 13.05 14.083 17.965 20.06 20.625 19.025 16.298 14.042 13.03 13.038 13.225 14.5 13.615 13.538 12.905 12.925 13.028 13.727 12.967 12.98 12.985 12.993 12.997 13.22 12.92 12.917 13.273 13.085 12.993 13.042 13.625 14.562 15.483 14.8 13.88 13.25 13.22 13.205 13.205 14.55 15.628 15.605 13.682 13.898 13.667 13.285 13.233 13.302 13.325 13.445 15.542 13.6 13.765 14.628 15.23 16.76 17.105 17.45 17.8 18.155 18.28 17.99 14.275 16.128 16.105 15.355 14.45 14.655 14.035 13.78 13.783 13.78 13.778 13.75 13.68 13.51 13.445 13.318 13.275 13.33 13.347 13.333 13.318 13.305 13.29 13.293 13.288 13.273 13.25 13.222 13.177 13.14 13.11 13.142 13.188 13.208 13.195 13.182 13.665 14.318 13.347 13.298 13.023 13.472 14.283 14.275 13.333 13.455 13.233 13.477 14.288 13.15 13.693 14.828 13.562 13.198 15.82 14.682 12.855 12.82 12.398 12.275 12.298 12.285 12.413 12.335 12.173 13.863 17.31 17.99 17.318 14.238 12.25 12.483 13.372 13.24 13.21 12.69 12.722 12.73 12.802 14.962 15.497 12.993 12.837 13.92 13.75 12.872 12.955 13.087 19.665 19.698 19.728 19.767 19.815 18.972 13.085 13.53 13.68 13.203 13.483 13.358 13.712 13.927 15.327 19.153 20.267 20.62 19.538 16.15 13.523 13.528 13.298 13.327 13.382 13.52 13.6 13.613 16.09 14.665 13.56 13.583 14.52 14.312 14.485 15.545 15.573 15.17 13.575 15.19 15.938 15.782 15.483 14.017 13.542 13.47 13.73 14.467 15.398 16.118 16.257 14.392 16.317 19.993 21.017 20.763 19.577 15.057 14.14 14.323 14.01 14.03 13.845 13.92 15.385 14.427 13.957 13.932 13.903 13.91 13.94 16.233 16.288 16.08 14.76 17.323 19.4 20.06 20.66 21.062 21.003 15.525 14.288 15.135 17.255 14.807 15.257 14.503 14.073 14.13 14.245 16.222 18.03 15.403 14.052 13.942 13.903 14.155 13.868 14.288 15.023 15.755 13.398 16.538 17.075 16.153 15.705 14.33 13.847 13.892 13.888 13.892 13.885 13.915 13.97 13.925 13.905 13.91 13.943 13.958 13.957 13.96 13.952 13.955 13.962 13.995 14.052 14.09 14.115 14.073 13.88 13.515 13.438 13.345 13.29 14.35 13.722 13.302 13.34 13.092 12.862 13.385 12.953 12.825 14.8 17.233 16.993 13.097 12.948 12.863 12.8 12.792 12.788 12.988 12.39 11.99 11.9 11.882 11.83 11.78 11.715 11.705 11.802 11.722 11.73 11.753 11.747 11.77 11.847 11.887 11.915 11.88 11.932 11.997 12.023 12.105 12.185 12.292 12.455 12.557 12.587 13.065 12.625 12.577 12.53 12.525 12.51 12.467 12.423 12.382 12.365 12.38 12.405 12.417 12.438 12.472 12.535 12.51 12.475 12.403 12.343 12.315 12.298 12.315 12.337 12.342 12.423 12.938 16.562 12.898 13.023 12.975 12.903 12.667 12.615 12.547 12.497 12.5 12.455 12.352 12.3 12.743 14.068
20.177 21 20.95 19.993 13.475 11.88 11.878 11.903 11.905 11.913 11.905 11.917 12.012 11.932 11.952 11.952 11.965 11.972 11.972 11.967 11.975 11.98 11.972 11.977 11.962 11.965 11.977 12.017 12.295 12.743 11.975 11.935 11.858 11.815 12.16 13.93 14.352 13.203 15.163 13.767 13.395 12.985 14.05 13.44 13.403 13.892 14.792 14.16 12.925 12.943 16.673 18.767 19.128 19.478 19.842 20.208 18.125 13.04 13.012 13.167 13.11 12.972 12.898 12.94 12.905 12.917 13.073 13.065 13.052 13.033 13.013 12.98 14.938 18.103 20.485 20.218 17.625 14.64 14.095 13.015 13.007 12.988 12.965 12.948 12.905 12.97 14.17 13.295 13.007 12.952 12.952 12.948 12.972 12.985 12.983 12.865 13.37 14.25 13.278 12.9 12.983 12.997 13.11 13.73 14.562 15.398 15.177 14.083 13.285 13.165 15.188 15.615 15.155 13.247 13.26 13.265 13.2 13.238 13.27 13.305 13.87 15.452 13.665 13.73 13.753 13.748 13.842 14.443 15.193 16.71 17.06 17.415 16.435 14.98 16.173 16.142 14.595 16.035 17.192 16.85 16.045 15.087 14.087 13.757 13.792 13.805 13.597 13.49 13.35 13.222 13.288 13.333 13.302 13.262 13.238 13.198 13.208 13.205 13.212 13.21 13.225 13.212 13.192 13.163 13.135 13.093 13.057 13.06 13.038 13.035 13.06 13.003 12.935 12.945 13.225 13.068 13.618 13.007 12.953 12.917 12.905 14.135 13.15 12.955 13.47 12.977 12.775 12.68 12.712 12.73 12.61 12.398 12.3 12.315 12.33 12.448 12.4 12.255 12.477 12.535 12.658 12.483 12.358 12.37 12.55 12.733 12.828 12.847 12.682 12.685 12.717 12.755 13.188 13.688 12.755 12.775 12.77 12.802 13.273 12.948 12.985 18.198 17.503 18.022 18.63 18.67 18.603 13.472 13.32 16.997 16.535 14.185 13.302 13.373 13.965 19.035 20.125 20.69 20.255 19.23 15.32 13.682 14.083 13.705 13.335 13.413 13.735 13.64 14.73 16.237 14.195 13.552 13.602 15.03 13.79 14.985 15.493 15.53 14.255 13.645 15.312 15.882 15.073 15.278 13.568 13.575 13.477 13.852 13.952 14.032 14.637 15.028 14.122 14.37 15.76 20.448 20.275 18.173 14.15 14.733 14.685 15.507 14.003 14.355 13.823 13.878 13.903 13.962 13.955 13.94 13.94 14.952 16.265 16.305 15.6 13.887 14.093 14.01 17.195 18.835 20.11 19.667 14.342 14.25 19.23 20.288 19.525 18.225 15.262 14.07 13.997 14.28 14.972 15.085 14.257 14.25 15.13 14.355 13.925 13.913 14.375 14.62 13.812 13.903 13.575 13.315 13.512 14.247 14.983 14.608 13.73 13.665 13.865 13.938 13.935 13.892 13.9 13.907 13.885 13.875 13.9 13.913 13.932 13.945 13.948 13.962 13.955 13.948 13.967 14.02 14.055 14.08 13.993 13.8 13.68 13.573 14.102 14.915 13.753 13.267 13.525 13.267 13.73 13.267 13.387 16.372 17.885 16.735 14.105 13.283 12.948 12.792 12.78 12.785 12.958 13.363 13.767 12.16 12.033 11.89 11.805 11.792 11.715 11.695 11.733 11.74 11.735 11.75 11.872 11.858 11.872 11.885 11.885 11.9 11.935 12.028 12.125 12.185 12.29 12.497 12.757 13.14 12.81 12.548 12.568 12.515 12.495 12.457 12.415 12.382 12.392 12.413 12.438 12.443 12.435 12.44 12.523 12.538 12.523 12.495 12.385 12.34 12.3 12.285 12.315 12.333 12.375 16.305 21.772 22.882 17.538 13.048 13.1 12.958 12.76 12.695 12.592 12.55 12.493 12.427 12.358 12.285 12.523 13.17
20.288 21.147 20.872 20.028 12.86 11.863 11.898 11.932 11.932 11.935 11.95 11.938 11.925 11.903 11.958 11.965 11.977 11.975 11.952 11.983 11.98 11.97 11.967 11.99 11.975 11.97 11.975 11.983 11.952 11.94 11.95 11.92 11.85 11.89 12.418 14.55 13.012 15.552 14.365 13.44 13.47 12.773 12.75 12.73 12.708 13.085 13.078 13.057 13.155 13.015 12.94 13.918 15.7 17.365 18.735 19.085 15.453 13.017 14.125 13.09 13.023 12.903 12.913 12.925 12.882 13.035 13.613 14.14 13.07 13.07 12.995 13.13 15.855 17.59 16.645 15.205 14.868 12.975 12.965 12.953 12.945 12.95 12.945 12.91 12.863 12.975 14.497 13.775 13.06 12.927 12.925 12.94 12.922 12.94 12.962 12.87 13.235 13.372 12.935 12.828 12.885 12.938 13.132 13.05 13.06 13.083 13.557 15.507 15.288 14.415 14.035 14.387 13.837 13.212 13.245 13.24 13.175 13.233 13.225 13.295 13.315 13.445 13.483 13.677 13.69 13.69 13.725 13.78 13.708 13.773 14.14 15.547 14.788 15.083 16.03 16.103 13.952 18.138 18.205 17.92 17.583 17.243 16.9 16.253 14.995 14.16 13.65 13.535 13.42 13.27 13.257 13.3 13.248 13.205 13.172 13.278 13.323 13.305 13.267 13.222 13.175 13.158 13.155 13.155 13.148 13.13 13.11 13.078 13.045 13.005 12.97 12.932 12.895 12.87 12.89 12.868 12.872 12.825 12.823 12.828 13.012 13.323 12.972 12.8 13.073 12.87 12.688 12.642 12.583 12.597 12.515 12.372 12.327 12.345 12.32 12.465 12.52 12.45 12.423 12.438 12.477 12.525 12.545 12.545 12.458 12.413 13.092 13.042 12.632 12.613 12.66 12.7 12.698 12.698 12.74 12.74 12.753 12.762 12.81 12.882 12.9 12.935 13.38 13.132 13.175 13.005 13.247 13.363 13.46 17.487 16.458 13.695 13.305 13.61 15.88 19.35 20.45 20.46 19.368 16.247 14.243 13.38 14.025 13.355 13.327 13.45 13.635 13.648 15.035 15.43 14.69 13.805 14.333 15.908 13.605 13.61 13.892 14.618 13.945 13.7 13.885 15.502 14.495 14.042 13.542 13.55 13.555 14.618 14.038 14.047 14.097 14.262 14.675 15.195 14.483 15.722 16.092 16.842 13.972 14.93 13.927 14.392 14.318 14.25 14.115 13.735 13.788 13.833 13.88 14.105 14.09 15.602 16.278 16.325 14.452 14.125 14.493 14.07 14.16 14.448 16.065 16.145 15.283 15.98 20.897 21.085 20.798 20.32 19.84 18.765 14.533 14.29 14.205 14.642 15.042 14.15 14.568 15.15 15.015 14.493 14.517 14.365 14.712 15.243 16.05 14.333 13.51 13.122 13.323 17.382 17.648 13.503 13.595 14.033 14.225 14.09 13.98 13.895 13.903 13.892 13.855 13.855 13.868 13.892 13.92 13.938 13.935 13.943 13.938 13.93 13.953 14.007 14.043 14.052 13.98 13.783 13.615 14.382 13.86 14.087 13.342 13.45 13.11 12.998 14.71 17.308 17.585 15.55 13.335 12.795 12.795 12.79 12.765 12.875 13.18 12.328 13.052 12.337 11.9 11.927 11.855 11.8 11.695 11.717 11.722 11.73 11.755 11.763 11.87 11.885 11.892 11.89 11.855 11.943 11.927 11.993 12.07 12.205 12.295 12.368 13.63 13.01 12.58 12.562 12.545 12.507 12.465 12.415 12.385 12.405 12.415 12.445 12.472 12.487 12.465 12.513 12.542 12.56 12.533 12.493 12.41 12.35 12.302 12.302 12.325 12.358 12.81 20.585 23.09 23.4 20.243 13.102 13.16 12.935 12.71 12.73 13.155 12.653 13.023 12.415 12.655 13.757 13.238 12.653
20.407 21.19 20.772 19.907 11.86 11.85 11.88 11.922 11.94 11.962 11.965 11.965 11.962 11.962 11.962 11.97 11.975 11.965 11.962 11.98 11.965 11.962 11.955 11.95 11.97 11.98 11.983 11.972 11.952 11.935 11.92 11.885 11.833 12.05 13.105 16.778 13.095 16.238 15.005 12.8 12.805 12.76 12.747 12.747 12.738 12.708 12.67 12.993 13.7 13.118 12.967 13.157 14.055 13.788 13.62 15.593 13.077 13.215 13.305 13.132 12.94 12.85 12.917 12.878 12.955 13.093 13.18 13.135 13.755 14.96 14.285 14.148 16.708 17.51 15.775 13.042 12.988 12.955 12.927 12.927 12.9 13.033 12.938 12.882 12.858 12.865 13.622 14.135 13.613 12.885 12.9 12.895 13 13.378 14.078 12.855 12.775 12.705 12.738 13.025 12.82 12.885 13.06 13.03 13.198 15.44 14.467 14.61 14.605 14.722 14.622 13.128 13.128 13.175 13.23 13.21 13.175 13.212 13.222 13.3 13.295 13.255 13.247 15.012 15.073 14.222 13.682 13.708 13.695 13.737 13.735 13.747 13.743 13.755 14.132 14.568 15.022 17.335 17.688 18.038 18.27 18.263 17.98 17.625 17.28 15.39 13.7 13.55 13.445 13.323 13.302 13.28 13.23 13.312 13.343 13.377 13.4 13.465 13.443 13.578 13.587 13.302 13.2 13.148 13.118 13.075 13.065 13.057 13.033 13.025 13.005 12.975 12.945 12.917 12.878 12.847 12.807 12.775 12.743 12.72 13.05 13.485 12.93 13.188 13.475 12.747 12.555 12.48 12.427 12.472 12.438 12.36 12.37 12.368 12.347 12.368 12.452 12.465 12.455 12.438 12.438 12.46 12.467 12.467 12.413 12.35 12.347 12.398 12.497 12.505 12.535 12.555 12.55 12.578 12.663 12.695 12.708 12.71 12.733 12.75 12.76 12.805 12.89 14.048 12.887 12.905 12.923 13.525 13.658 16.058 14.28 13.507 13.938 13.825 16.093 18.79 20.715 20.15 19.057 13.87 14.343 13.6 13.542 13.325 13.35 13.45 13.71 14.495 16.382 15.743 14.465 13.832 14.867 16.13 13.925 13.693 14 13.685 13.675 13.823 13.667 14 13.655 13.613 13.655 13.575 13.735 14.738 13.977 14.068 14.132 14.182 14.89 16.565 16.478 15.725 14.658 14.908 14.46 13.985 13.905 13.825 14.395 14.665 13.722 13.725 13.72 13.712 13.765 13.837 14.615 15.413 14.908 15.155 13.915 13.972 14.077 14.235 14.305 14.285 13.847 13.9 13.943 16.535 19.868 20.365 20.835 21.19 20.903 19.642 14.145 14.137 14.16 14.185 14.542 14.5 14.653 15.252 15 16.92 17.158 14.535 15.72 15.708 14.863 14.455 14.477 14.182 13.58 15.615 16.955 13.63 13.852 14.588 15.015 15.042 14.96 14.28 14.02 13.877 13.89 13.86 13.828 13.845 13.873 13.885 13.91 13.917 13.925 13.935 13.92 13.913 13.922 13.972 14.02 14.04 13.94 14.312 13.52 13.423 14.28 13.583 12.887 12.85 14.635 17.142 16.673 13.74 13.052 12.81 12.812 12.81 12.757 13.185 13.18 12.083 11.995 11.935 11.892 11.858 11.837 11.855 11.79 11.753 11.73 11.738 11.778 11.842 11.858 11.875 11.887 11.882 11.927 11.967 11.97 12.007 12.07 12.19 12.27 12.36 12.71 12.693 12.535 12.568 12.542 12.51 12.455 12.413 12.392 12.425 12.427 12.438 12.477 12.52 12.535 12.55 12.557 12.58 12.56 12.445 12.43 12.358 12.308 12.318 12.352 12.385 14.835 22.62 23.17 23.245 17.927 12.895 12.98 12.775 12.665 12.7 12.753 13.438 16.023 14.4 14.57 15.637 15.06 13.02
20.503 21.21 20.65 19.74 12.278 11.85 11.863 11.887 11.895 11.927 11.95 11.972 12.003 12 11.962 11.967 12.167 11.972 11.948 11.927 13.167 15.828 14.16 11.927 11.955 11.977 11.997 11.985 11.972 11.95 11.917 11.842 11.828 12.3 13.427 13.387 12.945 13.58 13.472 13.415 14.445 12.735 12.76 12.767 12.767 12.74 13.163 13.07 12.75 12.682 12.688 13.368 13.153 13.165 13.495 12.945 12.958 12.967 12.993 12.988 12.865 12.882 12.89 12.83 12.955 13.015 13.015 13.09 13.113 13.105 13.392 14.007 13.585 14.722 14.283 14.075 14.278 12.953 12.925 12.92 12.913 15.623 17.92 12.88 13.24 13.29 13.345 13.08 12.88 12.852 12.87 13.1 13.443 13.5 15.108 15.818 15.53 14.778 14.27 13.028 12.818 13.057 13.057 13.052 13.773 15.783 15.983 17.06 17.535 15.983 13.69 13.148 13.153 13.157 13.2 13.158 13.175 13.195 13.25 13.295 13.273 13.245 13.25 15.587 15.632 14.948 13.505 13.62 13.688 13.727 13.735 13.837 13.818 13.795 13.865 13.735 13.965 15.225 16.26 16.945 17.29 17.655 18.022 18.263 18.26 15.055 15.285 13.608 13.46 13.32 13.31 13.273 13.345 13.413 13.42 13.48 13.622 13.79 13.517 13.705 13.873 14.038 13.81 13.655 13.608 13.385 13.13 13.045 12.993 12.975 12.945 12.932 12.913 12.892 12.88 12.86 12.842 12.818 12.795 12.77 13.017 13.507 12.91 13.055 13.435 12.712 12.523 12.49 12.465 12.46 12.448 12.432 12.413 12.417 12.398 12.39 12.377 12.37 12.35 12.337 12.342 12.333 12.323 12.335 12.343 12.33 12.337 12.328 12.35 13.085 12.775 12.46 12.967 12.788 12.613 13.093 12.525 12.533 12.573 12.608 12.632 12.67 12.708 12.747 12.773 12.832 12.88 13.04 12.952 13.2 13.2 13.54 14.453 15.743 14.52 13.57 15.77 16.655 17.127 14.273 13.805 14.132 13.705 13.305 13.378 14.052 16.698 19.382 18.645 17.405 17.38 15.765 14.56 13.705 13.807 13.767 13.855 13.762 13.81 13.88 13.747 13.8 13.707 13.69 13.712 13.613 13.852 15.12 14.275 14.12 14.175 15.545 15.175 18.403 18.905 17.675 16.655 15.278 14.278 13.923 13.873 13.738 13.71 13.707 13.717 13.733 13.755 13.757 14.118 14.855 14.105 14.807 14.892 14.078 14.262 14.03 14.298 14.087 14.023 14.002 13.957 13.998 14.585 14.488 17.417 18.465 19.78 20.267 20.815 16.718 14.08 14.145 14.158 14.148 14.155 14.15 14.185 14.29 14.965 15.302 15.115 14.878 16.655 16.14 14.093 15.185 17.628 14.363 14.355 15.53 16.525 13.535 13.208 14.077 14.52 14.575 15.507 14.815 14.885 14.153 13.913 13.878 13.87 13.852 13.825 13.83 13.852 13.868 13.887 13.905 13.922 13.913 13.898 13.88 13.903 13.958 13.993 13.988 13.84 13.628 13.44 13.217 13.023 12.965 12.927 13.003 14.285 13.305 12.8 12.812 12.85 12.83 12.78 13.325 12.47 12.25 12.03 11.985 11.88 11.847 11.827 11.812 11.795 11.78 11.782 11.743 11.72 11.88 11.88 11.887 11.885 11.87 11.89 11.93 11.965 12.062 12.113 12.17 12.245 12.755 13.182 12.51 12.545 12.562 12.56 12.517 12.458 12.438 12.44 12.44 12.448 12.45 12.467 12.507 12.555 12.6 12.613 12.613 12.583 12.505 12.455 12.39 12.365 12.352 12.395 12.458 16.4 23.923 24.943 22.69 13.882 12.79 12.7 12.67 12.61 12.613 12.705 12.885 13.352 14.345 15.417 14.705 14.61 14.01
20.6 21.21 20.552 18.548 11.98 11.845 12.943 11.865 11.865 11.915 11.955 11.972 12.193 11.98 11.968 11.967 11.967 11.955 11.927 11.892 15.91 20.14 19.978 14.23 11.92 11.952 11.975 11.962 11.97 11.952 11.91 11.805 11.898 12.52 14.783 14.5 13.975 14.85 15.503 15.045 12.793 12.773 12.757 12.75 12.745 12.778 12.82 12.795 12.815 12.67 15.172 18.065 19.19 16.753 15.102 13.16 13.352 13.205 12.99 12.927 12.833 12.898 12.875 12.85 12.907 13.395 13.283 12.935 12.977 13.012 13.055 13.05 13.002 16.205 17.342 16.042 13.148 13.48 12.948 13.02 13.335 14.658 15.665 12.88 13.273 13.538 13.288 12.882 12.852 12.84 12.842 12.95 13.28 14.15 13.8 12.645 13.167 14.79 15.842 16.27 15.48 14.038 13.57 13.097 13.337 14.74 16.327 17.432 17.265 16.19 13.202 13.23 13.315 13.1 13.108 13.132 13.172 13.17 13.245 13.28 13.248 13.41 13.67 15.42 15.637 13.98 13.408 13.575 13.673 13.68 13.733 13.895 13.825 13.775 13.78 13.773 13.76 13.747 13.773 14.128 15.105 16.185 16.913 17.27 17.215 14.335 14.047 13.667 13.462 13.305 13.307 13.305 13.438 13.595 13.903 13.635 13.962 14.135 13.685 13.805 13.738 13.858 13.552 13.51 13.458 13.653 13.23 13.19 13.148 13.403 13.198 13.073 12.97 12.94 12.878 12.855 12.798 12.77 12.743 12.738 12.722 12.698 12.663 12.63 12.595 12.562 12.528 12.495 12.493 12.485 12.48 12.462 12.455 12.452 12.44 12.432 12.425 12.423 12.4 12.398 12.392 12.408 12.403 12.41 12.413 12.422 12.42 12.417 12.422 12.538 12.63 12.465 12.77 12.847 12.54 12.672 12.658 12.54 12.557 12.583 12.615 12.64 12.658 12.698 12.722 12.757 12.788 12.812 12.83 12.858 12.915 12.99 13.038 13.665 13.983 13.773 13.355 13.368 13.365 13.365 13.305 13.355 13.283 13.307 13.432 14.863 19.298 20.46 20.148 20.103 19.933 19.632 18.397 14.075 14.083 13.87 13.852 14.09 14.455 13.995 13.825 13.833 13.753 13.75 13.743 13.682 13.953 14.085 14.148 14.548 14.417 16.728 17.33 19.807 20.845 21.03 19.34 14.815 14.01 13.95 13.823 13.725 13.74 13.733 13.733 13.737 13.737 13.75 13.778 13.792 13.783 13.778 13.91 13.97 15.05 14.94 14.575 14.163 14.94 14.208 14.533 14.427 14.352 14.02 15.658 15.318 15.312 17.655 18.615 13.957 14.023 14.105 14.132 14.132 14.158 14.405 14.145 14.195 15.78 14.905 14.993 14.417 14.465 15.493 15.86 18.472 15.51 15.225 14.225 14.863 17.2 14.17 14.325 14.26 13.458 14.653 15.938 15.552 14.658 14.16 13.92 13.925 13.903 13.873 13.878 13.835 13.802 13.818 13.842 13.877 13.905 13.908 13.905 13.9 13.887 13.852 13.872 13.927 13.965 13.953 13.795 13.642 13.37 13.135 13.02 12.96 12.913 12.943 12.9 12.87 12.88 12.858 13.095 13.688 13.81 13.167 12.052 11.985 11.998 11.89 11.815 11.83 11.837 11.85 11.835 11.82 11.863 11.882 11.882 11.855 11.9 11.905 11.925 11.96 11.98 12.045 12.1 12.218 12.43 12.832 12.76 12.47 12.52 12.545 12.565 12.533 12.493 12.497 12.5 12.487 12.503 12.483 12.505 12.523 12.55 12.637 12.66 12.667 12.613 12.538 12.452 12.407 12.395 12.415 12.452 13.81 21.972 24.653 24.7 20.695 13.528 12.855 12.76 12.68 12.595 12.548 12.532 12.483 13.9 16.655 16.013 14.905 14.387 13.517
20.705 21.185 20.448 16.823 11.84 17.33 19.968 19.872 19.64 16.737 12.587 11.922 11.927 11.932 11.972 11.96 11.923 11.917 11.91 13.955 19.95 20.65 21.2 20.802 16.593 11.92 11.927 11.935 11.938 11.915 11.892 11.818 12.125 12.833 15.333 15.5 15.515 15.243 15.278 13.76 13.375 12.8 12.785 12.77 13.265 12.702 12.783 12.798 12.79 12.655 14.872 18.825 20.503 19.892 18.493 13.163 13.26 12.945 13.262 12.868 12.845 12.885 12.842 12.863 12.9 13.257 13.573 14.092 15.427 14.4 13.407 12.948 13.81 18.062 19.993 20.167 17.743 13.667 13.655 13.31 13.462 13.145 13.04 12.905 12.943 13.347 13.012 12.847 12.833 12.967 12.823 12.818 12.9 15.528 12.635 12.642 12.62 12.635 12.642 13.297 14.615 15.137 15.415 15.355 14.93 15.052 16.708 17.608 16.923 15.165 13.19 13.233 13.195 13.075 13.105 13.12 13.16 13.155 13.198 13.245 13.217 13.212 13.795 15.605 15.64 14.045 13.368 13.573 13.648 13.962 15.695 14.96 14.105 13.79 13.778 13.77 13.76 13.765 13.795 13.785 13.735 13.852 13.907 14.95 14.448 13.842 13.823 13.66 13.42 13.315 13.325 13.365 13.48 13.855 14.6 14.24 15.52 14.825 14.115 13.887 13.997 13.753 13.622 13.655 13.592 13.423 13.318 13.275 13.432 13.653 13.5 13.552 13.493 15.235 14.398 13.023 12.94 12.863 12.738 12.682 12.658 12.65 12.622 12.587 12.552 12.515 12.475 12.455 12.445 12.435 12.432 12.413 12.395 12.398 12.375 12.38 12.373 12.352 12.352 12.35 12.365 12.373 12.385 12.385 12.405 12.405 12.405 12.4 12.43 12.443 12.462 12.472 12.467 12.503 12.515 12.525 12.548 12.565 12.58 12.608 12.645 12.67 12.698 12.745 12.78 12.807 12.842 12.882 12.903 12.932 12.94 12.94 12.955 12.99 13.432 13.15 13.608 13.885 13.417 13.238 13.202 13.24 13.265 13.352 13.472 14.245 20.725 21.007 21.032 21.017 20.993 20.755 20.033 19.3 18.132 14.472 13.807 15.71 16.267 14.36 14.375 13.835 13.795 13.8 13.765 13.812 14.078 14.305 13.995 14.102 14.148 14.988 18.353 20.28 21.235 20.535 18.622 13.975 13.972 13.887 13.798 13.743 13.747 13.757 13.753 13.755 13.755 13.775 13.767 13.77 13.795 13.81 14.42 14.948 14.118 13.945 14.368 14.488 16.028 14.467 14.618 14.238 14.06 14.085 14.012 14.503 14.055 13.998 14.122 14.21 14.165 13.997 14.065 14.1 15.375 16.642 18.325 15.852 14.29 14.153 14.278 14.877 14.535 14.172 15.042 15.632 15.262 16.705 15.04 15.102 16.555 14.253 15.222 14.278 13.842 15.458 14.58 14.38 16.062 15.195 13.475 13.677 13.938 13.975 13.892 13.872 13.885 13.835 13.802 13.828 13.847 13.878 13.892 13.903 13.898 13.875 13.845 13.815 13.847 13.905 13.943 13.907 13.76 13.51 13.337 13.17 13.047 13.055 13.05 12.993 12.917 12.898 13.422 13.005 12.655 12.267 12.102 12.062 12.02 11.967 11.905 11.86 11.873 11.882 11.892 11.885 11.903 11.932 11.892 11.828 11.84 11.882 11.952 12.002 12.035 12.097 12.155 12.193 12.262 12.455 12.487 12.493 12.535 12.555 12.6 12.58 12.552 12.557 12.555 12.562 12.573 12.58 12.568 12.575 12.642 12.688 12.735 12.727 12.642 12.545 12.458 12.44 12.44 12.445 12.495 15.702 22.993 24.892 24.09 20.358 12.858 12.938 12.865 12.805 12.708 12.602 12.51 12.538 16.495 17.45 17.195 13.593 12.94 12.695
20.515 21.108 20.355 16.608 13.967 19.587 20.812 20.722 20.628 20.05 13.392 11.905 11.913 11.927 11.92 11.88 11.86 11.89 11.915 17.975 20.462 21.142 20.993 20.312 18.105 11.917 11.93 11.923 11.92 11.868 11.863 11.875 12.42 13.188 15.157 15.475 15.477 15.493 15.163 13.127 12.927 13.503 12.945 14.065 14.358 14.637 14.477 13.302 12.74 12.65 15.87 19.27 20.385 19.415 16.825 12.78 17.438 16.4 13.27 12.84 12.87 12.865 12.83 12.863 12.923 13.42 13.51 15.12 17.247 16.84 16.42 17.17 16.312 18.755 20.427 19.89 17.04 13.087 12.845 12.87 12.823 13.292 13.158 12.913 13.065 13.582 12.932 12.84 12.82 12.823 12.807 12.802 12.967 14.505 12.66 12.58 12.595 12.605 12.628 12.688 12.757 12.842 12.91 12.975 13.608 16 17.083 17.575 16.545 14.288 13.205 13.262 13.135 13.07 13.09 13.115 13.132 13.128 13.137 13.227 13.212 13.218 14.565 15.618 15.65 14.515 13.415 13.615 13.67 13.69 14.837 15.273 13.802 13.77 13.757 13.735 13.755 13.765 13.785 13.955 13.705 13.725 13.767 13.76 13.783 13.818 13.727 13.575 13.378 13.352 13.5 13.435 13.51 14.035 15.307 14.837 17.427 17.083 16.715 15.685 15.052 14.038 13.872 13.735 13.653 13.493 13.458 13.417 13.823 13.512 13.525 13.507 13.445 13.515 13.323 13.275 13.153 12.91 12.83 12.655 12.632 12.63 12.61 12.568 12.525 12.542 12.587 12.59 12.583 12.642 12.775 12.863 12.665 12.675 12.615 12.523 12.495 12.432 12.405 12.407 12.532 12.58 12.583 12.503 12.477 12.455 12.448 12.432 12.415 12.38 12.408 12.427 12.448 12.458 12.467 12.462 12.48 12.5 12.538 12.58 12.615 12.64 12.658 12.695 12.745 12.767 12.805 12.837 12.885 12.93 12.958 12.99 13.015 13.028 13.79 14 13.07 13.115 13.137 13.142 13.175 13.208 13.248 13.347 14.123 16.045 19.61 19.927 20.25 20.103 20.417 20.913 20.807 20.44 20.115 16.522 14.917 14.962 17.085 14.812 13.935 13.82 13.802 13.818 13.788 13.835 13.983 14.135 14.023 14.087 13.977 15.002 19.73 20.757 21.048 20.045 16.657 13.967 13.983 13.898 14.235 14.832 13.977 13.783 14.05 13.79 13.788 13.81 13.81 13.815 13.805 13.812 13.827 13.927 14.23 14.882 14.105 14.58 14.407 14.88 14.82 14.58 14.165 14.108 14.142 14.055 13.997 14.105 14.172 14.743 14.305 14.097 14.11 14.203 16.405 18.035 20.155 21.12 19.087 16.188 14.108 14.78 14.62 14.217 14.24 14.205 14.363 16.333 15.2 14.42 14.64 14.157 14.11 14.047 14.132 15.443 13.77 13.54 13.75 14.807 13.807 13.105 13.29 13.767 13.935 13.903 13.892 13.875 13.872 13.83 13.81 13.837 13.855 13.882 13.892 13.877 13.875 13.855 13.835 13.802 13.825 13.895 13.922 13.91 13.73 13.468 13.298 13.15 13.1 13.087 13.005 12.955 13.635 13.515 12.49 12.267 12.238 12.145 12.043 11.98 11.952 11.935 11.948 11.927 11.925 12.057 11.96 12 11.96 11.908 11.89 11.915 11.96 11.97 12.033 12.135 12.21 12.237 12.32 12.565 12.4 12.475 12.55 12.588 12.618 12.632 12.632 12.655 12.655 12.65 12.658 12.63 12.627 12.663 12.745 12.765 12.792 12.765 12.663 12.573 12.483 12.48 12.47 12.48 12.513 19.215 23.47 25.267 21.278 14.795 12.873 12.877 12.823 12.812 12.81 12.765 12.802 14.812 19.575 19.895 18.118 12.997 12.618 12.562
19.612 19.552 19.573 18.225 16.96 20.365 21.135 21.208 21.225 20.025 12.577 11.923 11.93 11.892 11.855 12.573 16.333 15.69 11.872 12.823 18.737 21.162 20.502 19.115 12.685 11.93 11.925 11.927 11.903 11.86 11.86 12.025 12.658 13.145 13.837 14.215 15.175 15.455 14.472 12.915 12.878 12.852 12.847 13.818 13.74 13.817 14.693 13.335 13.917 13.51 16.175 19.182 20.263 18.972 14.73 13.392 17.767 18.162 12.908 12.828 12.875 12.842 12.85 12.865 12.925 13.017 12.95 15.483 16.605 17.137 16.79 18.858 19.125 19.483 20.6 19.37 15.158 12.878 12.835 12.827 12.815 12.807 12.767 12.775 13.05 13.128 13.06 12.828 12.827 12.81 12.89 13.035 14.243 13.352 12.608 12.555 12.57 12.585 12.608 12.675 12.79 12.865 12.93 12.997 13.523 16.323 17.4 17.28 16.193 13.215 13.342 13.235 13.4 13.087 13.085 13.105 13.102 13.102 13.13 13.285 13.267 13.658 14.427 14.46 15.585 15.422 14.655 14.203 13.65 13.645 13.722 13.818 13.898 13.735 13.73 13.74 13.74 14.363 14.012 13.682 13.595 14.312 13.715 13.722 13.745 13.78 13.675 13.505 13.358 13.6 14.125 13.485 13.555 13.693 14.055 16.013 18.18 18.122 17.818 17.455 17.11 16.753 16.03 15.052 14.233 13.62 13.6 14.318 13.823 13.618 13.667 13.673 13.628 13.917 13.467 13.36 13.28 13.073 12.875 12.76 12.635 12.618 12.605 12.552 12.533 12.642 12.65 12.67 12.705 13.167 12.938 12.76 12.74 12.818 12.82 12.858 13.25 12.5 12.495 12.79 13.028 13.113 13.122 13.115 13.503 13.132 12.793 12.575 12.512 12.47 12.413 12.455 12.485 12.495 12.5 12.497 12.5 12.61 12.693 12.73 12.77 12.807 12.842 12.875 12.972 12.945 12.95 12.962 12.94 12.903 12.895 12.943 12.98 13.028 13.065 13.102 13.125 13.125 13.125 13.125 13.15 13.198 13.222 13.32 14.005 13.85 15.137 16.062 18.177 17.235 19.062 19.967 20.708 20.97 20.653 19.94 19.6 18.773 16.88 16.377 14.878 14.05 14.587 13.855 13.785 13.812 14.372 14.595 14.13 14.048 13.98 17.59 20.2 21.215 20.62 18.99 14.035 14.057 13.948 13.938 13.972 13.995 13.913 13.825 14.608 13.91 13.835 13.833 13.885 13.9 13.92 13.938 13.95 13.863 13.865 13.94 13.887 13.89 13.92 14.015 14.185 14.575 14.425 14.32 14.19 14.012 14.035 14.102 14.13 14.455 14.058 14.07 14.155 15.155 16.475 19.368 20.635 21.257 20.375 18.427 14.302 14.493 14.15 14.227 14.265 14.237 14.257 14.2 14.21 14.43 16.417 15.175 14.243 14.835 16.552 18.233 13.637 13.587 13.557 14.615 14.345 13.565 14.055 13.365 14.102 14.21 13.993 13.895 13.892 13.875 13.878 13.842 13.82 13.837 13.855 13.868 13.88 13.87 13.863 13.835 13.81 13.792 13.823 13.878 13.9 13.878 13.685 13.448 13.33 13.195 13.1 13.043 13.193 13.14 12.948 12.435 12.413 12.26 12.215 12.092 11.983 11.925 11.98 11.985 12.153 12.095 12.04 12.017 12.023 11.99 11.998 12.002 12.003 11.977 12.017 12.16 12.265 12.315 12.387 12.58 12.398 12.5 12.57 12.648 12.7 12.693 12.717 12.738 12.74 12.752 12.735 12.72 12.712 12.75 12.833 12.868 12.842 12.81 12.685 12.595 12.533 12.535 12.483 12.502 13.735 21.75 24.972 24.9 20.685 13.3 12.847 12.885 12.807 12.775 12.802 13.142 12.903 15.195 19.865 20.44 17.79 13.385 12.608 12.528
20.99 20.823 19.977 16.892 16.525 19.995 20.33 20.445 20.562 20.017 12.72 11.91 11.878 11.895 11.895 16.155 20.682 20.182 17.265 12.97 14.725 19.03 19.935 13.535 11.923 11.932 11.94 11.945 11.887 11.837 11.84 12.25 12.855 13.083 12.993 12.977 12.983 13.432 13.125 12.855 12.843 13.045 12.78 15.247 16.177 15.583 14.785 14.105 12.87 13.118 12.825 12.628 14.705 15.8 12.705 14.335 21.17 19.525 12.852 12.842 12.865 12.842 12.898 12.877 12.91 12.927 12.943 13.267 13.608 14.3 13.023 14.41 18.177 19.885 20.335 18.728 13.262 12.858 12.823 12.825 12.827 12.802 12.773 12.757 13.275 14.432 13.595 13.257 12.83 12.88 12.82 12.967 15.523 13.128 12.545 12.565 12.583 12.583 12.6 12.635 12.738 12.837 12.945 13.043 15.005 16.683 17.603 16.925 15.358 13.2 13.22 13.172 13.927 13.69 13.467 13.195 13.36 13.08 13.173 13.295 13.285 14.298 16.667 17.22 15.142 13.97 13.325 13.842 13.533 13.635 14.125 15.67 14.79 13.955 13.82 13.745 13.727 15.57 15.403 13.6 14.46 15.903 15.783 14.055 13.62 13.65 13.605 13.458 13.365 13.805 13.67 13.525 13.585 13.75 14.15 16.727 17.28 17.64 17.995 18.19 18.135 17.837 17.487 17.15 14.092 15.455 14.645 13.845 14.448 14.273 13.71 13.717 13.958 13.72 13.577 13.535 13.48 13.267 12.94 12.828 12.682 12.61 12.61 12.555 12.655 12.693 12.715 13.038 13.135 12.875 12.815 12.812 12.82 12.775 12.74 13.097 12.72 12.587 12.577 13.49 12.663 12.727 12.765 12.735 13.35 12.682 12.68 12.703 12.557 12.557 12.513 12.462 12.485 12.493 12.495 12.53 12.618 12.69 12.733 12.795 12.84 12.895 12.965 13.003 13.205 13.102 13.142 13.203 13.042 13.045 13.038 13.035 13.023 13.035 13.035 13.07 13.12 13.165 13.188 13.198 13.198 13.188 13.193 13.243 13.38 13.682 13.97 13.773 13.868 13.685 14.548 17.442 19.608 19.917 20.958 21.005 20.71 19.888 18.962 18.167 16.083 14.645 16.103 14.118 13.807 13.975 13.92 13.993 14.108 14.413 14.068 17.915 20.705 21.12 20.11 16.837 14.015 14.115 13.917 13.995 14.055 14.08 14.222 14.07 14.155 15.62 14.163 13.92 14.113 13.903 13.882 13.735 13.97 13.925 13.87 13.87 13.892 13.907 13.9 13.908 13.962 14.622 14.34 14.54 14.05 14.015 14.443 15.007 14.31 14.083 14.07 14.068 14.102 16.24 17.927 20.062 21.065 20.917 19.605 15.337 14.185 14.157 14.167 14.22 14.247 14.247 14.222 14.222 14.227 14.193 14.49 14.27 14.432 20.942 25.795 25.45 16.618 13.712 13.658 13.97 13.39 13.748 14.818 13.25 15.09 13.965 14.41 14.14 13.99 14.727 13.892 13.873 13.878 13.86 13.81 13.837 13.858 13.875 13.88 13.873 13.85 13.82 13.802 13.78 13.797 13.85 13.887 13.885 13.4 13.248 13.163 13.538 13.5 14.002 12.673 12.557 12.528 12.355 12.278 12.222 12.155 12.062 12.005 11.972 12.06 12.115 12.153 12.122 12.075 12.025 12.025 12.07 12.09 12.112 12.122 12.215 12.36 12.775 13.025 12.445 12.457 12.552 12.62 12.688 12.748 12.767 12.783 12.795 12.823 12.825 12.807 12.793 12.78 12.842 12.9 12.908 12.89 12.855 12.765 12.637 12.58 12.54 12.525 12.545 14.55 23.015 25.69 24.475 17.222 12.858 12.86 12.86 12.802 12.775 12.77 13.057 12.695 16.165 20.397 21.01 16.41 12.597 12.525 12.477
21.073 20.882 20.028 13.485 13.057 16.15 17.895 18.542 19.533 18.275 12.255 11.89 11.92 11.94 13.722 20.997 21.245 20.88 20.375 19.06 18.337 15.878 13.218 12.455 11.923 11.938 11.945 11.932 11.885 11.863 11.945 12.505 13.265 13.13 12.983 12.958 12.952 12.932 12.86 12.84 12.798 12.773 12.74 12.757 13.472 14.977 15.555 16.608 16.34 15.67 14.198 13.153 12.648 12.663 12.693 12.8 16.145 14.583 12.825 12.86 12.845 12.878 13.132 13.34 13.033 12.935 15.655 13.925 12.948 12.967 13.015 12.905 13.12 15.977 17.915 16.84 12.9 12.87 12.82 12.805 12.802 12.78 12.767 12.802 15.352 15.688 12.93 12.783 12.815 12.84 12.825 14.028 14.98 13.182 12.753 12.557 12.573 12.568 12.61 12.658 12.81 12.913 12.913 13.062 15.49 17.042 17.562 16.573 14.153 13.135 13.195 13.18 13.512 13.783 13.708 13.948 13.747 13.608 13.23 13.29 13.29 15.087 17.045 17.733 16.865 15.927 15.525 13.945 14.125 13.665 13.653 13.745 14.74 14.435 13.847 13.983 15.035 14.055 14.247 13.538 15.205 15.895 15.852 13.51 13.485 13.468 13.467 13.385 13.392 13.372 13.46 13.515 13.613 13.99 13.677 13.74 15.115 15.938 16.907 17.265 17.63 17.978 18.157 16.55 14.962 16.062 16.042 14.738 15.08 15.34 14.217 13.98 14.265 13.725 13.667 13.685 13.628 13.46 13.095 12.82 12.708 12.615 12.608 12.59 12.738 12.745 13.038 13.153 13.003 12.95 12.932 12.922 12.898 12.833 12.778 13.05 12.685 12.698 12.648 12.945 12.807 12.762 12.765 12.938 13.153 12.735 12.712 12.745 12.715 12.578 12.573 12.485 12.452 12.48 12.472 12.59 12.66 12.698 13.528 14.29 12.847 12.903 12.962 13.028 13.023 13.033 13.568 13.917 13.048 13.068 13.113 13.135 13.145 13.173 13.182 13.172 13.142 13.128 13.14 13.207 13.253 13.257 13.255 13.235 13.257 13.358 13.847 14.29 14.01 13.67 14.118 14.182 15.318 16.423 20.288 20.675 21.03 20.73 20.415 20.08 19.775 19.46 17.372 13.89 13.835 14.19 13.917 13.967 13.985 13.995 14.962 14.767 14.962 18.77 18.897 14.233 14.055 13.985 13.935 14.04 14.075 14.115 15.318 14.695 15.35 15.263 15.028 14.542 14.443 14.892 13.845 13.73 13.812 13.965 13.955 13.892 13.895 13.913 13.935 13.922 13.972 14.75 14.915 14.158 14.212 14.562 15.672 14.538 14.485 14.233 14.292 14.038 14.68 16.665 19.11 20.538 21.205 20.445 17.395 14.278 14.188 14.14 14.17 14.203 14.227 14.217 14.2 14.233 14.25 14.217 14.212 14.165 15.003 23.513 24.8 24.755 17.37 14.113 14.88 13.66 13.608 13.503 13.38 13.38 13.818 13.267 13.342 13.925 14.625 15.43 13.99 13.935 13.898 13.873 13.882 13.845 13.818 13.825 13.85 13.87 13.858 13.858 13.84 13.828 13.785 13.763 13.788 13.705 13.547 13.425 13.35 13.715 13.225 13.645 12.71 12.597 12.53 12.477 12.343 12.285 12.255 12.208 12.165 12.123 12.108 12.16 12.3 12.312 12.215 12.042 12.052 12.097 12.137 12.15 12.21 12.318 12.39 13.28 13.03 12.43 12.485 12.54 12.622 12.7 12.793 12.842 12.858 12.87 12.875 12.885 12.89 12.882 12.88 12.92 12.955 12.967 12.935 12.882 12.79 12.7 12.655 12.602 12.57 12.573 18.157 23.673 25.833 24.075 15.41 12.892 12.88 12.82 12.783 12.778 12.75 12.975 12.807 19.29 20.583 19.778 16.215 12.542 12.512 12.467
21.163 20.77 19.253 12.747 11.927 11.925 11.905 11.915 11.9 12.038 11.905 11.932 11.917 11.9 15.898 20.295 20.788 21.205 21.07 19.938 19.628 17.128 12.548 11.92 11.93 11.938 11.92 11.917 11.872 11.855 12.105 13.925 17.983 14.96 13.173 12.935 12.91 12.882 12.835 12.88 12.783 12.74 12.72 12.722 12.865 15.048 15.905 17.825 17.888 17.17 16.782 16.387 15.615 13.15 13.017 12.865 12.812 12.798 12.82 12.843 12.825 12.908 13.15 13.387 13.438 14.012 18.79 18.99 16.625 14.29 12.995 12.927 15.333 14.917 13.363 12.953 12.882 12.842 12.8 12.8 12.802 12.855 12.807 12.8 14.465 13.955 12.8 12.818 12.83 12.903 13.078 15.382 13.615 13.007 12.695 12.558 12.55 12.565 12.642 12.715 12.845 12.858 12.93 13.108 14.81 16.958 17.318 16.12 13.49 13.122 13.137 13.208 13.212 13.195 13.285 13.5 13.903 13.725 13.26 13.333 13.36 16.208 17.39 17.577 16.495 14.89 14.95 13.387 13.75 13.72 13.7 13.7 13.918 14.025 13.868 13.648 14.185 13.95 14.377 15.708 15.91 15.63 14.783 13.505 13.49 13.465 13.445 13.37 13.398 13.36 13.455 13.495 13.635 14.153 13.86 13.722 13.823 13.89 14.382 15.055 16.015 16.89 17.253 15.432 15.608 16.093 16.07 14.847 17.475 17.177 16.823 16.31 15.265 14.177 13.737 13.722 13.722 13.613 13.28 12.868 12.698 12.62 12.605 12.682 12.868 13.253 13.03 13.068 13.065 13.015 12.968 12.962 12.927 12.91 12.833 13.04 12.762 12.765 12.863 14.767 16.035 15.11 14.04 13.545 12.863 12.76 12.767 12.74 12.983 12.608 12.592 12.523 12.45 12.467 12.462 12.613 12.672 12.717 12.85 13.78 12.955 12.895 12.945 13.038 13.012 13.025 13.078 13.055 13.055 13.078 13.167 13.17 13.245 13.325 13.327 13.285 13.298 13.283 13.262 13.208 13.202 13.245 13.27 13.29 13.288 13.477 14.015 13.557 13.64 14.03 13.905 13.655 13.688 15.825 18.49 19.56 20.193 20.975 21.147 21.13 20.877 20.568 18.21 13.778 13.94 15.102 14.142 13.965 14.017 14.375 19.212 19.84 16.47 14.195 13.935 13.943 14.01 13.935 14 14.118 14.115 14.33 14.19 14.182 15.45 14.155 14.835 15.167 14.333 14.67 13.73 13.785 13.972 14.007 14.02 14.005 13.995 13.96 13.935 13.948 13.935 13.972 14.488 14.092 14.82 15.135 14.245 14.245 14.177 14.165 14.137 14.425 14.523 15.872 19.378 21.045 21.022 19.952 16.215 14.485 14.278 14.148 14.182 14.2 14.195 14.26 14.217 14.215 14.225 14.19 14.198 14.185 14.14 20.017 20.263 16.718 14.59 14.542 14.94 13.83 13.815 13.75 13.677 13.58 13.65 13.427 13.32 13.337 16.407 20.065 17.292 16.885 13.975 13.918 13.88 13.88 13.885 13.858 13.823 13.828 13.852 13.855 13.878 13.852 13.847 13.83 13.798 13.75 13.698 13.61 13.54 13.64 13.512 13.125 12.86 12.753 12.648 12.61 12.56 12.472 12.352 12.3 12.292 12.298 12.255 12.2 12.387 12.363 12.212 12.415 12.28 12.297 12.173 12.215 12.27 12.355 12.61 12.727 12.485 12.455 12.485 12.538 12.608 12.705 12.823 12.905 12.927 12.915 12.898 12.917 12.948 12.952 12.948 12.985 13.045 13.04 13.012 12.98 12.868 12.793 12.755 12.695 12.658 12.655 19.24 24.14 24.89 21.3 13.4 12.895 12.872 12.87 12.78 12.763 12.75 12.715 14.905 19.795 20.925 19.785 13.693 12.53 12.517 12.525
21.195 20.677 18.632 12.04 11.927 11.93 11.92 11.887 11.895 11.923 11.905 11.945 11.938 11.922 13.417 18.477 20.09 20.605 20.515 19.57 20.497 20.247 17.585 13.562 11.9 11.935 11.923 11.905 11.885 11.917 12.318 17.255 16.02 16.317 15.333 14.153 13.568 12.917 12.847 12.8 12.765 12.71 12.738 12.7 13.205 15.63 16.385 17.9 18.487 17.013 16.095 16.5 15.968 12.72 12.743 12.82 12.812 12.927 12.823 12.845 13.217 13.305 13.16 13.198 13.032 17.292 19.448 20.155 19.498 18.247 15.135 12.988 14.212 15.042 15.305 13.407 13.385 12.715 12.765 12.87 12.812 12.92 12.847 13.123 12.775 12.792 12.828 12.833 12.875 12.895 13.972 15.592 12.818 12.602 12.587 12.59 12.597 12.635 12.68 12.745 12.802 12.892 12.935 13.033 13.077 13.247 13.2 14.47 13.115 13.13 13.188 13.198 13.2 13.243 13.252 13.215 13.275 13.148 13.27 13.32 14.658 16.685 17.717 17.208 16.062 13.472 13.433 13.552 13.792 13.73 13.695 13.718 13.932 14.345 13.658 13.47 13.483 13.797 15.682 15.91 15.89 15.042 13.51 13.5 13.485 13.467 13.42 13.368 13.385 13.37 13.465 14.325 14.745 13.715 14.977 14.195 14.083 13.972 14.562 13.972 13.875 14.31 15.057 14.102 15.885 15.935 15.597 15.675 18.175 18.167 17.915 17.575 17.205 16.842 16.148 14.96 13.955 13.62 13.28 12.887 12.663 12.64 12.608 12.757 12.993 13.255 13.555 14.102 13.62 13.1 12.972 12.948 12.927 12.923 12.875 13.773 13.677 12.995 13.395 16.983 17.128 16.76 16.417 16.087 15.248 14.325 13.12 12.745 12.727 12.842 12.593 12.525 12.448 12.477 12.467 12.622 12.673 12.783 12.953 16.403 15.972 14.698 14.148 13.275 13.248 13.083 13.19 13.252 13.645 13.105 13.225 13.22 13.347 13.415 13.42 13.415 13.408 13.76 13.525 13.462 13.327 13.267 13.233 13.275 13.32 13.35 13.6 13.725 13.965 13.807 13.505 13.923 13.778 13.8 13.887 14.865 18.062 19.878 20.198 20.522 20.853 21.118 16.627 13.747 14.017 14.003 14.068 14.163 14.03 17.022 20.095 21.07 20.765 19.15 14.538 13.962 13.93 13.938 14.035 14.118 14.153 14.238 14.185 14.637 14.415 14.11 16.24 17.142 16.108 14.21 13.745 14.043 16.163 15.227 14.307 14.04 14.073 14.565 13.958 13.965 13.935 13.99 14.05 14.137 14.175 14.28 15.265 14.875 14.26 14.398 14.073 14.017 16.577 15.497 14.76 18.5 20.377 18.04 14.23 14.222 14.12 14.13 14.137 14.16 14.153 14.158 14.185 14.15 14.128 14.12 14.115 14.077 14.062 15.935 14.515 14.085 14.108 14.483 14.012 13.948 13.913 13.99 14.25 13.798 13.75 13.965 14.047 13.515 15.205 14.608 23.487 17.015 13.515 13.788 13.92 13.917 13.892 13.887 13.895 13.852 13.812 13.82 13.828 13.85 13.86 13.863 13.845 13.8 13.762 13.725 13.698 13.795 13.788 13.757 13.645 13.18 12.898 12.745 12.673 12.613 12.53 12.475 12.417 12.392 12.337 12.29 12.302 12.255 12.225 12.222 12.24 12.262 12.312 12.497 12.425 12.392 12.618 13.038 12.45 12.485 12.49 12.533 12.595 12.73 12.868 12.965 12.993 12.962 12.922 12.95 12.995 13 13.012 13.042 13.097 13.095 13.05 13.01 12.935 12.892 12.845 12.807 12.767 13.46 23.475 25.537 24.243 15.642 12.852 12.86 12.845 12.812 12.807 12.788 12.798 12.932 18.195 20.435 20.715 19.92 13.06 12.56 12.515 13.705
21.195 20.587 18.46 11.878 11.935 11.892 11.875 11.91 11.917 11.917 11.93 12.078 11.965 11.938 11.915 12.257 16.968 18.23 18.255 20.335 21.25 20.952 20.44 19.942 14.318 11.847 11.88 11.903 11.895 12.04 12.565 15.925 18.052 14.702 14.642 12.86 12.783 12.773 12.887 12.757 12.752 12.715 12.703 13.605 14.997 15.715 16.44 17.108 17.548 16.47 15.15 14.523 13.792 12.682 12.743 12.872 13.51 13.095 12.823 12.847 13.82 13.202 12.98 12.903 13.12 18.745 20.03 20.4 19.302 17.085 15.083 13.257 12.87 12.863 13.305 13.5 13.378 12.632 12.788 12.58 12.587 12.807 13.115 13.158 12.812 13.153 13.032 13.06 12.972 12.93 15.377 15.925 15.038 13.91 12.945 13.083 12.667 12.675 12.71 12.77 12.818 12.882 12.98 13.595 14.392 14.738 14.637 15.237 14.39 14.003 13.12 13.118 13.182 13.238 14.96 13.477 13.325 13.24 13.285 13.318 15.097 17.062 17.72 16.86 15.047 13.427 13.4 13.693 13.782 13.698 13.658 13.66 13.698 14.568 13.533 13.465 13.47 13.675 14.807 15.538 15.878 14.127 13.515 13.505 13.49 13.48 13.403 13.385 13.375 13.405 13.455 13.48 13.513 14.09 15.865 15.932 15.265 14.028 14.15 13.812 13.788 13.733 13.785 13.745 14.087 14.312 14.257 16.225 17.222 17.593 17.932 18.193 18.177 17.952 17.583 17.215 14.065 13.578 13.215 12.812 12.637 12.657 12.658 13.09 12.85 13.188 14.102 14.483 14.465 14.105 13.395 13.042 13.003 12.948 12.945 14.538 15.375 15.158 14.142 17.04 17.382 17.522 17.487 17.188 16.84 16.483 16.14 15.03 12.79 12.965 12.935 12.515 12.465 12.485 12.485 12.61 12.72 12.845 15.13 17.503 17.157 16.84 16.507 16.138 15.113 14.403 13.43 13.35 15.298 14.032 14.83 14.702 14.64 14.087 13.493 13.49 13.483 13.702 13.458 13.46 13.587 13.585 13.347 13.302 13.302 13.312 13.37 13.403 13.422 13.785 13.815 13.913 13.538 13.653 13.743 13.81 14.54 16.47 16.98 18.915 19.728 20.07 14.113 13.76 14.142 13.98 13.985 13.997 14.155 19.353 20.568 21.205 20.27 17.608 14.007 14.002 13.958 13.975 14.07 14.122 14.19 14.182 14.418 16.452 15.337 14.778 17.18 17.35 16.608 14.845 14.265 15.13 16.415 15.31 15.833 14.505 14.125 14.882 14.153 13.975 13.97 14 14.095 14.243 14.575 14.49 16.417 15.722 15.983 16.685 15.597 17.015 20.108 21.07 18.65 15.03 15.343 14.29 14.69 14.24 14.118 14.135 14.115 14.102 14.122 14.145 14.13 14.083 14.062 14.052 14.055 14 13.975 14.005 14.233 13.953 14 14.06 14.08 14.07 14.038 14.075 14.185 13.967 13.967 13.922 13.82 17.202 14.755 15.627 20.045 15.02 13.455 13.658 14.533 13.792 13.872 13.915 13.878 13.898 13.905 13.855 13.818 13.82 13.833 13.85 13.852 13.845 13.823 13.783 13.743 13.745 13.788 13.805 14.95 14.217 13.34 12.985 12.762 12.695 12.68 12.67 12.628 12.51 12.46 12.345 12.295 12.285 12.257 12.262 12.28 12.29 12.323 12.405 12.552 13.295 12.642 12.517 12.46 12.507 12.54 12.552 12.648 12.775 12.92 13.017 13.055 13.025 12.988 13.025 13.04 13.04 13.042 13.1 13.165 13.115 13.092 13.05 12.983 12.948 12.898 12.87 12.872 16.095 23.93 25.243 22.722 13.85 12.87 12.823 12.788 12.74 12.738 12.722 12.708 13.507 19.683 20.802 20.888 16.75 12.622 12.61 12.512 13.075
12.837 13.69 12.965 11.875 11.89 11.892 11.905 11.92 11.905 12.1 12.995 12.885 12.24 11.943 11.917 11.903 11.945 11.938 15.938 20.21 20.688 21.163 21.118 19.405 12.682 13.81 13.15 12.425 11.913 12.722 13.92 16.487 16.555 13.27 12.927 12.892 12.792 12.755 12.735 12.677 13.108 12.773 14.227 13.19 14.43 15.052 15.175 14.408 15.95 15.71 12.677 12.922 12.685 12.675 12.765 12.84 13.073 12.775 12.812 12.823 13.015 13.4 12.94 12.925 15.615 19.177 20.337 20.225 18.812 15.905 15.477 15.717 13.233 13.025 12.693 12.63 12.705 12.595 12.552 12.59 12.693 12.477 12.507 12.59 12.708 12.938 13.235 12.793 13.325 13.54 16.208 14.17 13.475 14.267 14.818 14.635 13.685 13.95 13.542 14.108 15.023 15.345 15.743 15.057 14.565 14.605 14.02 14.188 13.977 16.335 16.177 14.955 13.85 13.215 14.292 13.238 13.333 13.37 13.285 13.363 16.327 17.427 17.562 16.485 13.677 13.45 13.535 14.153 13.755 13.688 13.66 13.788 14.06 14.708 13.512 13.48 13.58 16.61 17.73 16.88 14.398 13.495 13.488 13.475 13.47 13.45 13.377 13.398 13.378 13.43 13.46 13.477 13.503 15.252 15.925 15.872 14.52 14.065 13.792 13.815 13.802 13.828 13.872 13.85 13.895 14.17 14.423 13.935 15.115 15.585 16.847 17.218 17.552 17.93 18.19 16.948 14.427 14.875 13.165 12.752 12.658 12.665 12.712 12.972 12.858 14.28 16.4 17.278 15.205 13.352 13.233 12.882 13.227 13.03 13.5 15.372 15.41 14.735 13.535 15.945 16.292 16.627 16.96 17.298 17.493 17.49 17.257 13.818 12.825 12.795 13.05 12.503 12.488 12.49 12.515 12.63 12.757 12.837 16.38 17.205 17.507 17.635 17.568 17.285 16.955 16.608 16.275 14.148 14.805 14.44 15.722 16.47 17.048 16.72 15.98 14.953 14.215 13.595 13.532 13.505 13.485 13.757 13.41 13.977 13.445 13.403 13.363 13.368 13.415 13.458 13.46 14.12 13.7 14.243 13.83 13.635 13.725 13.79 13.815 13.953 14.91 16.747 13.778 13.837 14.05 14.005 14.02 13.995 16.077 19.995 21.057 20.85 19.795 14.49 14.003 13.97 13.975 14.035 14.075 14.15 14.653 14.153 15.257 16.257 14.597 14.82 16.603 16.372 14.148 14.083 14.467 16.347 15.625 15.43 15.167 14.155 14.282 14.658 14.177 13.988 13.983 14.04 14.125 14.715 14.458 14.818 15.512 16.423 16.725 16.743 16.76 19.417 20.615 21.265 20.33 18.612 14.885 14.09 14.155 14.13 14.125 14.128 14.115 14.093 14.095 14.115 14.112 14.075 14.04 14.023 13.975 13.913 13.913 15.43 18.375 16.305 13.948 13.907 13.98 14.085 14.085 14.105 14.075 14.105 14.087 14.068 14.257 14.16 20.22 22.013 13.753 15.547 15.012 14.035 18.502 15.887 13.6 13.807 13.84 13.892 13.887 13.895 13.887 13.845 13.805 13.823 13.84 13.85 13.837 13.82 13.797 13.765 13.745 13.733 13.757 13.793 13.665 13.392 12.99 13.01 12.76 12.74 12.663 12.613 12.56 12.45 12.405 12.39 12.34 12.29 12.33 12.337 12.378 12.417 12.455 13.948 14.045 13.132 12.542 12.548 12.575 12.597 12.707 12.837 12.95 13.033 13.083 13.073 13.01 13.052 13.068 13.062 13.105 13.51 14.172 13.198 13.128 13.083 13.042 13.003 12.958 12.93 12.945 17.93 23.388 23.57 19.827 12.905 12.86 12.82 12.77 12.738 12.675 12.657 12.668 15.682 20.083 20.39 17.192 12.642 12.648 12.608 12.515 13.2
11.965 11.948 11.875 11.868 11.91 11.93 11.917 11.917 11.91 12.05 12.745 12.75 12.802 12.398 11.93 11.94 11.935 11.903 13.095 18.075 19.995 20.512 20.388 13.215 11.85 12.63 13.352 12.288 11.968 14.205 14.885 15.863 14.807 13.118 12.885 12.793 12.788 12.725 12.705 12.712 12.653 13.547 15.495 15.48 14.52 14.517 13.847 12.642 12.872 13.715 12.665 12.673 12.677 12.682 12.815 12.795 12.703 12.74 12.775 12.77 12.792 12.89 12.997 13.1 17.84 19.522 20.222 19.583 17.698 15.493 14.285 14.487 12.9 12.79 12.68 12.635 12.638 12.635 13.167 12.52 12.372 12.375 12.395 12.4 12.42 12.488 12.628 12.855 13.03 15.443 14.93 13.03 12.85 12.745 12.762 13.432 14.075 14.047 15.327 14.865 14.02 13.235 13.023 13.105 13.14 13.212 13.22 13.195 14.743 17.587 17.265 16.87 16.48 16.103 15.165 13.84 13.19 13.278 13.302 14.425 16.71 17.74 17.218 15.972 13.337 13.403 13.483 13.538 13.61 14.548 14.2 14.037 14.49 14.63 13.74 13.55 14.698 16.935 17.965 17.452 16.068 13.528 13.477 13.445 13.39 13.38 13.39 13.413 13.385 13.453 13.48 13.495 13.507 14.275 15.94 15.932 13.917 14.165 13.77 13.77 13.77 13.842 13.87 13.865 14.27 14.073 13.87 14.02 13.865 13.812 14.488 14.788 15.967 16.835 17.185 15.638 16.497 19.03 13.075 12.725 12.695 12.663 12.865 13.055 12.85 15.305 16.757 17.33 16.365 14.14 12.845 12.903 12.9 13.065 13.175 13.212 14.392 14.188 12.76 12.74 13.892 15.56 15.365 16.195 16.535 16.892 17.233 13.208 12.81 12.872 13.275 12.535 12.5 12.497 12.56 12.735 12.83 12.983 14.965 16.088 16.43 16.767 17.118 17.452 17.632 17.642 16.478 13.27 14.007 15.108 15.68 17.827 18.007 17.83 17.487 17.165 16.827 16.175 15.222 14.45 13.712 13.565 13.905 13.67 13.538 13.495 13.472 13.465 13.415 13.405 13.445 13.49 13.51 13.943 14.142 13.81 13.852 13.68 13.762 13.837 13.792 13.802 13.738 13.895 13.985 13.975 14.08 14.025 19.163 20.493 21.237 20.362 17.842 14.023 13.987 13.97 14.003 14.08 14.083 14.148 14.155 14.078 15.102 15.358 14.23 14.15 14.18 14.483 14.09 14.017 14.057 14.265 15.132 16.12 14.62 14.18 14.245 14.198 14.033 13.99 13.985 14.068 14.315 15.1 14.54 14.42 14.285 14.415 16.112 16.475 17.785 20.028 21.06 20.9 19.532 15.977 14.5 14.123 14.12 14.1 14.09 14.087 14.095 14.09 14.077 14.078 14.087 14.077 14.03 13.972 13.907 13.865 14.102 19.333 20.073 19.708 18.49 16.815 13.882 13.955 14.205 14.052 14.085 14.097 14.08 14.073 19.755 22.795 23.568 16.653 13.76 15.753 17.505 17.91 20.052 15.312 13.417 13.592 13.83 13.708 13.818 13.855 13.882 13.885 13.877 13.858 13.828 13.845 13.852 13.855 13.825 13.823 13.795 13.765 13.735 13.715 13.755 13.78 13.685 13.655 13.09 12.885 12.818 12.908 12.65 12.538 12.5 12.483 12.395 12.37 12.44 12.497 12.5 12.45 12.493 13.028 13.568 12.57 12.565 12.545 12.6 12.653 12.753 12.903 13.028 13.08 13.11 13.105 13.085 13.093 13.092 13.105 14.462 16.908 14.467 13.318 13.395 13.122 13.083 13.05 13.025 12.967 14.405 22.78 24.632 22.09 15.658 12.913 12.84 12.79 12.767 12.73 12.677 12.67 12.66 17.92 21.103 21.452 16.327 12.682 12.657 12.595 12.637 12.975
11.915 11.887 11.877 11.885 11.895 11.9 11.917 11.925 11.923 11.943 11.99 12.352 12.435 12.113 11.965 11.97 11.953 11.922 11.895 12.15 15.87 19.43 14.325 11.86 11.833 11.805 11.805 11.855 12.09 13.263 17.425 16.67 12.993 12.955 12.865 12.76 12.747 12.722 12.685 12.712 12.66 14.747 15.52 14.905 15.212 15.658 16.862 16.785 14.618 13 12.648 12.665 12.685 12.7 12.747 12.735 12.665 12.725 12.725 12.733 13.057 13.172 12.915 13.057 15.552 17.923 19.112 19.073 16.577 14.4 13.565 13.11 13.358 12.83 13.047 12.717 12.64 12.642 13.185 13.19 12.385 12.315 12.267 12.285 12.355 12.403 12.42 12.46 12.57 14.198 14.562 12.895 12.79 12.802 12.83 12.815 12.743 12.858 12.84 12.872 12.905 12.967 13.045 13.1 13.122 13.252 13.27 13.132 15.625 17.09 17.478 17.618 17.522 17.18 16.812 16.415 15.67 13.262 13.355 14.675 17.09 17.767 16.837 14.812 13.405 13.405 13.488 13.517 13.557 16.945 16.72 13.673 14.333 14.943 13.613 13.583 15.34 17.245 18.017 17.132 15.198 13.628 13.505 13.417 13.36 13.405 13.423 13.425 13.395 13.423 13.477 13.503 13.523 15.005 15.948 15.98 14.077 14 13.753 13.745 13.8 13.833 13.802 13.84 13.917 13.952 13.843 13.823 13.858 14.023 13.882 13.783 13.85 13.78 14.67 14.352 13.667 13.68 12.878 12.71 12.715 12.703 13.03 12.837 13.13 16.028 17.095 17.09 16 13.18 13.177 12.877 12.938 12.99 13.06 13.185 13.44 13.047 12.95 12.845 13.96 14.98 13.233 13.068 15.637 15.812 14.847 12.783 12.833 13.042 13.165 12.51 12.528 12.5 12.628 12.818 13.025 12.865 12.885 12.892 13.895 14.757 16.017 16.347 16.692 17.025 15.58 13.295 13.392 14.21 15.355 17.013 17.333 17.68 17.972 18.017 17.915 17.59 17.245 16.78 16.292 14.077 14.16 13.54 13.552 13.55 13.525 13.512 13.53 13.52 13.48 13.42 13.465 13.523 13.557 13.84 14.4 13.74 13.9 13.733 13.795 13.795 13.785 13.95 13.955 13.932 14.042 13.923 16.487 19.897 20.908 19.875 16.165 14.06 14.062 13.975 14.012 14.068 14.06 14.45 14.09 14.042 14.04 14.158 14.113 14.105 14.233 14.153 14.07 14.045 14.127 14.193 14.138 15.565 15.438 14.23 14.933 14.323 14.025 14.007 13.988 14.09 14.278 14.43 14.662 14.5 14.263 14.217 14.495 14.625 19.153 20.525 21.177 20.413 17.278 14.075 14.145 14.26 14.14 14.128 14.115 14.08 14.045 14.06 14.04 14.002 14.033 14.033 14.002 13.94 13.847 13.865 16.022 20.315 20.545 20.45 20.142 19.783 18.53 16.89 15.068 14.885 14.165 14.062 14.085 14.097 14.125 18.823 17.003 14.038 14.265 15.903 22.667 20.95 21.055 16.93 13.39 13.285 13.448 13.55 13.812 13.69 13.818 13.887 13.892 13.892 13.905 13.863 13.83 13.84 13.852 13.845 13.835 13.815 13.792 13.757 13.712 13.71 13.755 13.75 13.642 13.298 13.055 13.4 13.068 12.645 12.59 12.55 12.538 12.48 12.438 12.453 12.542 12.573 12.597 12.792 12.955 12.6 12.62 12.613 12.655 12.717 12.818 12.975 13.055 13.123 13.15 13.14 13.118 13.11 13.14 13.413 19.08 18.745 13.575 14.175 15.667 13.395 14.53 13.252 13.132 13.055 18.202 23.86 25.487 22.215 13.957 12.917 12.837 12.798 12.77 12.73 12.693 12.663 12.917 19.14 21.667 20.67 14.163 12.722 12.65 12.578 13.005 12.972
11.872 11.903 11.877 11.875 11.892 11.908 11.927 11.93 11.932 11.952 11.987 11.975 11.987 11.995 11.977 11.952 11.932 11.908 11.892 11.885 11.875 13.042 11.863 11.863 11.815 11.757 11.788 11.905 12.235 12.735 17.312 17.792 13.295 12.92 12.865 12.792 12.743 12.72 12.702 12.673 12.665 14.68 15.688 15.578 15.535 15.918 17.335 17.685 16.862 16.245 14.445 13.305 12.705 12.693 12.715 12.655 12.677 12.722 12.67 12.783 13.288 13.415 13.628 13.565 13.057 12.958 14.03 15.812 15.573 13.298 13.145 13.073 12.837 14.252 12.823 12.79 12.837 12.792 12.878 12.753 12.488 12.462 12.392 12.275 12.267 12.342 12.432 12.467 12.465 12.483 12.63 12.833 13.005 13.182 12.873 12.837 12.855 12.972 12.855 12.872 12.94 13.002 13.045 13.09 13.122 13.19 13.24 13.285 14.405 15.465 16.392 16.78 17.155 17.517 17.625 17.493 16.42 14.285 15.423 14.165 13.288 15.1 16.017 13.562 13.355 13.528 13.47 13.52 14.743 18.535 17.528 13.608 13.59 13.73 14.375 13.938 16.46 17.575 17.85 16.8 14.115 13.495 13.515 13.39 13.39 13.423 13.432 13.43 13.4 13.368 13.47 13.497 13.525 15.007 15.935 15.962 15.58 14.565 13.715 13.892 13.757 13.82 13.833 13.833 13.865 14.467 15.51 14.997 13.788 13.865 13.835 13.785 13.78 13.753 13.67 13.85 13.505 13.15 12.828 12.72 12.725 12.767 12.837 12.83 14.377 16.38 17.385 16.737 15.198 12.89 12.97 13.055 12.948 13.215 13.38 13.843 13.78 13.035 13.03 12.922 12.825 12.865 12.932 13.35 15.592 15.708 13.445 13.285 12.83 12.812 12.75 12.528 12.545 12.525 12.677 13.173 13.295 13.007 12.988 12.965 13.142 13.352 15.448 15.097 14.472 15.225 13.36 13.352 13.265 13.47 13.725 14.16 15.285 16.392 16.89 17.23 17.545 17.872 18.028 17.945 16.59 15.907 14.642 13.533 13.555 13.565 13.573 13.555 13.587 13.6 13.56 13.573 13.528 13.493 13.49 13.55 13.59 13.612 14 14.903 13.872 13.712 13.762 13.932 13.943 13.94 14.403 13.942 13.965 13.962 15.945 18.212 15.903 14.297 14.427 13.975 14.033 14.062 14.108 17.562 19.12 15.528 14.735 14.068 14.05 14.057 14.238 15.387 14.243 14.003 14.11 14.092 14.2 15.16 14.51 14.142 14.297 14.315 13.99 14.02 13.987 14.105 14.39 14.667 14.403 14.227 14.355 14.515 14.225 16.493 19.965 21.013 20.983 19.925 15.717 14.135 14.127 14.16 14.142 14.132 14.113 14.057 14.015 13.995 13.965 13.948 13.983 13.975 13.945 13.892 13.823 13.868 16.802 19.557 19.897 20.255 20.522 20.48 20.182 19.878 19.497 17.327 14.99 13.91 13.953 14.087 14.245 14.523 14.097 14.148 14.095 22.737 21.028 22.237 19.1 13.77 13.625 13.432 13.403 13.42 13.7 13.602 13.65 13.628 13.84 13.913 13.917 13.905 13.915 13.865 13.833 13.845 13.85 13.85 13.835 13.818 13.76 13.735 13.69 13.698 13.73 13.725 13.58 13.658 13.77 14.128 13.25 12.735 12.65 12.635 12.64 12.608 12.61 12.66 13.028 12.905 12.77 12.702 12.705 12.695 12.702 12.78 12.895 13.025 13.095 13.19 13.195 13.193 13.153 13.158 13.175 15.895 21.818 17.847 13.385 14.773 14.395 13.765 13.872 13.507 14.203 15.363 22.765 24.39 24.887 20.237 13.445 12.95 12.92 12.828 12.762 12.727 12.722 12.688 14.283 20.21 21.458 15.863 13.22 12.89 12.665 12.568 13.075 12.797
11.835 11.845 11.858 11.882 11.917 11.925 11.908 11.925 11.935 11.962 11.977 11.972 11.977 11.952 11.957 11.948 11.923 11.89 11.94 11.927 11.892 11.847 11.865 11.84 11.76 11.708 11.795 12.14 12.408 12.95 13.128 15.14 13.273 13.315 13.488 13.47 12.767 12.88 12.96 13.835 13.085 15.203 16.68 16.535 16.125 16.378 17.792 17.243 16.592 16.95 14.66 13.555 12.93 13.315 12.765 12.628 12.698 12.685 13.275 13.132 12.865 13.48 13.153 12.895 13.427 13.618 13.955 13.172 13.142 15.212 14.515 13.307 12.812 12.828 12.745 12.712 12.797 13.15 12.802 12.667 12.573 12.595 12.512 12.365 12.34 12.358 12.442 12.535 12.41 12.413 12.53 12.6 13.935 13.337 13.472 13.227 12.94 13.003 12.94 12.948 12.952 13.048 13.078 13.108 13.118 13.155 13.177 13.165 13.097 13.097 13.538 14.568 15.82 16.448 16.827 17.215 15.275 13.267 13.995 13.868 14.173 13.365 13.273 13.31 13.423 13.472 13.493 13.53 15.45 18.728 16.4 14.503 13.59 13.597 13.53 14.138 16.785 17.865 17.59 16.095 13.597 13.515 13.517 13.388 13.41 13.425 13.435 13.427 13.403 13.403 13.52 13.535 13.97 15.193 14.76 14.693 14.682 14.487 13.73 13.84 14.298 13.985 13.847 13.865 13.95 13.792 14.605 14.93 13.755 13.795 13.722 13.91 13.675 13.575 14.775 13.86 13.37 13.048 12.79 12.767 12.73 12.845 12.868 12.965 15.142 16.75 17.353 16.38 14.54 13.047 13.042 13.102 13.243 13.153 13.24 14.737 13.712 13.09 13.085 12.965 12.92 13.028 13.087 13 12.95 13.615 12.99 13.257 12.895 12.8 12.622 12.543 12.55 12.55 12.722 12.878 14.533 13.65 13.087 13.115 13.498 13.608 13.328 13.51 12.943 12.932 12.98 13.165 13.198 13.345 13.53 13.443 13.403 13.342 14.04 14.898 15.96 16.792 17.132 17.47 16.163 15.81 13.5 13.523 13.54 13.577 13.585 13.562 13.565 13.573 13.57 13.67 13.677 13.658 13.618 13.562 13.52 13.58 13.648 13.667 13.67 13.868 14.398 13.923 14.15 13.927 13.952 14.042 14.585 14.282 14.105 14.01 14.082 14.015 13.948 14.035 14.08 14.085 15.7 21.042 20.56 20.085 19.138 17.317 14.257 14.307 14.512 16.637 16.627 15.435 14.712 14.115 14.062 14.125 14.142 14.63 14.32 14.033 14.015 14.017 14.033 14.302 14.193 14.788 14.655 14.245 14.243 14.118 14.102 14.568 15.257 18.88 20.185 17.975 14.163 14.188 14.585 14.455 14.155 14.137 14.097 14.06 13.98 13.845 13.812 13.852 13.908 13.91 13.868 13.84 13.82 13.927 16.495 16.98 18.493 19.505 19.825 20.175 20.51 20.507 20.218 19.903 19.525 18.042 14.653 14.265 13.962 14.065 14.118 14.102 14.368 17.72 19.233 21.23 16.233 13.958 13.818 13.688 13.592 13.58 16.39 15.125 13.512 13.665 13.5 13.685 13.863 13.925 13.903 13.903 13.917 13.88 13.842 13.837 13.837 13.833 13.807 13.778 13.733 13.695 13.653 13.688 13.73 13.745 13.708 14.938 14.017 14.045 13.887 13.545 12.725 12.743 12.72 12.788 12.972 12.97 12.96 12.948 12.825 12.833 12.818 12.882 12.935 13.033 13.13 13.21 13.25 13.29 13.22 13.215 14.33 17.47 17.87 14.285 13.815 13.26 13.2 13.19 13.175 13.18 13.15 16.548 23.17 25.035 23.91 18.43 13.033 12.977 13.042 12.972 12.735 12.715 12.702 12.707 16.267 20.267 21.188 16.33 12.757 12.863 12.662 12.812 13.477 12.547
12.012 12.275 11.953 11.903 11.833 11.858 11.855 11.885 11.925 11.952 11.952 11.94 11.962 11.943 11.948 11.938 11.915 11.948 11.975 11.932 11.89 11.872 11.858 11.823 11.757 11.748 11.815 12.312 12.575 13.11 13.13 14.67 13.543 13.123 13.093 13.115 13.517 12.997 13.82 14.958 14.875 13.9 14.352 15.752 16.472 17.007 17.88 17.01 16.263 15.97 13.435 13.18 13.135 13.267 12.695 12.655 12.695 12.66 12.98 12.89 12.8 12.798 15.163 17.227 16.353 13.11 12.955 13.285 14.253 15.783 15.997 15.727 14.7 13.702 12.948 12.695 12.667 12.623 12.56 12.54 12.583 12.605 12.847 12.56 12.975 12.465 12.472 12.455 12.438 12.43 12.44 13.565 13.755 13.025 12.735 12.882 13.025 13 13.642 12.993 13.057 13.158 13.113 13.12 13.13 13.15 13.172 13.2 13.208 13.195 13.208 13.182 13.222 13.648 15.45 16.128 13.73 13.323 13.815 15.167 13.96 13.327 13.352 13.427 13.472 13.49 13.488 13.538 15.775 17.873 14.677 13.615 13.555 13.557 13.535 14.875 17.105 18.01 17.24 15.337 13.51 13.507 13.675 14.08 13.995 13.712 13.815 13.42 13.395 13.453 13.542 13.65 15.07 17.095 18.042 17.292 14.855 13.83 13.72 13.727 13.745 13.78 13.863 14.167 15.12 14.28 13.712 14.443 14.778 13.832 14.253 15.855 15.315 14.142 14.935 13.653 13.355 12.953 12.773 12.788 12.76 12.88 12.845 13.425 16.022 17.108 17.105 16.017 15.07 13.363 13.333 13.203 13.142 13.113 13.615 14.805 13.347 13.182 13.15 13.165 13.13 13.128 13.05 13.062 13.118 13.167 13.068 13.31 12.917 12.795 12.61 12.565 12.535 12.55 12.748 12.915 14.68 13.775 13.382 13.145 13.275 13.503 13.28 13.158 13.085 13.083 13.087 13.195 13.275 13.27 13.305 13.38 13.347 13.35 13.635 14.033 13.448 13.702 15.007 15.693 15.565 15.198 13.505 13.505 13.52 13.588 13.545 13.53 13.545 13.525 13.6 13.657 13.693 13.75 13.755 13.74 13.682 13.595 13.57 13.632 13.67 13.665 14.193 14.538 13.712 13.773 14.227 14.255 15.645 15.177 14.375 14.042 14.04 13.97 13.97 14.055 14.097 14.08 17.395 20.98 21.362 21.165 20.693 20.215 19.118 14.653 18.6 18.892 17.845 16.715 16.747 16.462 15.318 14.023 14.127 15.605 14.64 14.02 14.028 14.725 14.355 16.11 14.873 15.905 16.433 15.698 14.735 14.01 15.055 17.065 14.847 14.355 15.2 15.3 14.297 14.2 14.64 14.122 14.142 14.135 14.12 14.028 13.905 13.85 14.325 13.93 13.795 13.84 13.833 13.81 14.212 14.128 15.587 16.305 14.71 14.405 17.753 18.917 19.802 20.118 20.448 20.53 20.292 19.94 19.227 18.765 16.358 13.962 13.985 14.34 14.375 14.175 14.298 15.417 14.118 14.08 13.99 13.905 14.015 14.745 16.94 14.43 13.6 13.578 13.535 13.515 13.583 13.757 13.868 13.913 13.898 13.91 13.922 13.887 13.852 13.835 13.823 13.81 13.788 13.765 13.722 13.68 13.65 13.68 13.722 13.753 13.823 13.615 13.602 14.472 14.625 13.89 12.953 12.847 12.91 12.94 12.925 12.917 12.905 12.887 12.943 13.025 13.065 13.115 13.17 13.2 13.26 13.273 13.283 13.365 17.767 22.767 18.302 13.653 14.09 13.18 13.163 13.125 13.11 13.1 13.09 15.555 19.452 24.392 21.36 16.6 12.955 13.033 13 12.775 12.797 12.712 12.695 12.725 16.978 20.85 20.452 14.218 12.802 12.708 12.682 13.507 14.24 12.512
11.735 11.735 11.785 12.698 12.46 11.977 11.962 11.823 11.837 11.885 11.917 11.925 11.943 11.94 11.917 11.882 11.925 11.995 11.97 11.92 11.905 11.895 11.858 11.835 11.788 11.78 11.887 12.208 12.712 13.73 13.84 12.843 12.855 12.92 12.915 12.878 12.818 12.76 12.722 13.632 14.038 14.882 13.208 12.74 13.217 15.115 17.14 16.74 16.96 16.355 13.01 13.49 12.84 12.785 12.657 12.645 12.663 12.66 12.688 12.87 12.78 12.788 14.12 18.108 19.157 18.858 16.615 13.815 15.27 15.58 15.455 15.618 14.62 12.898 13.055 12.685 12.698 12.595 12.548 12.52 12.613 12.78 13.012 15.17 20.353 18.728 13.097 12.452 12.42 12.443 12.667 14.11 12.733 12.79 12.74 12.712 12.722 12.745 13.708 15.025 13.012 13.163 13.14 13.2 13.122 13.188 13.215 13.23 13.238 13.233 13.247 13.608 13.27 13.57 15.32 14.783 13.16 13.345 14.618 16.013 14.85 14.458 13.363 13.413 13.477 13.467 13.477 13.59 16.778 16.667 13.748 13.538 13.542 13.517 13.693 16.07 17.423 17.94 16.92 14.507 13.493 13.525 13.775 13.97 14.212 14.475 14.085 14.087 14.975 13.5 13.57 13.565 15.702 17.39 17.97 16.98 14.332 13.648 13.693 13.738 13.725 13.805 14.07 15.24 13.82 14.255 14.26 13.927 14.18 13.762 14.75 15.845 15.812 13.86 14.345 13.61 13.073 12.825 12.783 12.798 12.812 12.855 12.852 14.435 16.365 17.335 16.752 15.685 14.8 13.15 12.997 13.035 13.195 13.257 13.39 13.665 13.37 13.233 13.22 13.22 13.177 13.118 13.065 13.307 14.958 14.085 13.658 13.005 13.682 13.108 12.602 12.585 12.555 12.613 12.757 12.875 13.358 13.882 13.613 13.17 13.337 13.427 13.323 13.293 13.273 13.257 13.69 13.507 13.485 13.295 13.32 13.37 13.358 13.363 14.68 13.715 13.457 13.483 13.488 13.45 13.392 13.495 13.51 13.495 13.495 13.52 13.512 13.523 13.52 13.515 13.62 13.635 13.68 13.74 13.727 13.75 13.945 13.765 13.825 13.663 13.605 13.635 13.682 13.733 13.747 13.747 13.763 13.812 13.868 14.24 14.575 14.205 14.32 13.962 14.012 14.087 14.087 14.065 18.245 19.94 20.39 20.862 21.23 21.218 16.843 14.003 20.94 20.47 20.02 19.525 18.065 16.885 15.735 13.988 14.583 15.25 14.08 14.03 14.1 14.932 14.42 14.805 14.608 15.59 15.445 15.172 14.163 14.005 17.132 20.318 20.497 18.077 15.115 13.985 14.033 14.293 14.377 14.135 14.128 14.128 14.105 13.955 13.83 14.24 13.997 14.148 14.042 14.122 13.767 13.775 15.99 15.392 14.015 14.017 14.083 13.875 14.448 15.025 16.688 19.108 19.733 20.083 20.397 20.538 20.368 20.005 19.653 18.205 16.87 14.615 14.19 14.14 14.925 14.475 14.472 14.227 14.26 14.038 14.028 15.125 13.775 13.778 13.735 13.68 13.632 13.618 13.608 13.615 13.743 13.845 13.892 13.875 13.913 13.917 13.927 13.892 13.84 13.818 13.802 13.788 13.76 13.735 13.693 13.663 13.653 13.663 13.715 13.745 13.89 13.672 13.738 14.062 14.747 14.188 13.105 13.023 12.98 12.945 12.93 12.938 12.94 12.985 13.075 13.142 13.177 13.245 13.325 13.337 13.373 13.42 15.355 19.78 17.778 13.47 13.278 13.265 13.235 13.165 13.122 13.097 13.135 13.132 17.228 19.41 16.778 12.975 12.997 14.682 14.008 13.163 12.775 12.707 12.693 13.403 17.915 19.952 17.825 12.76 12.753 12.767 12.76 15.225 13.26 13.065
11.773 11.747 11.72 11.733 11.745 12.05 12.547 11.827 12.148 11.948 11.798 11.812 11.858 11.878 11.878 11.878 11.94 11.977 11.94 11.895 11.877 11.892 12.565 13.747 13.19 11.812 11.97 12.368 13.278 16.2 16.125 15.122 14.087 12.762 12.81 12.828 12.825 12.75 12.58 14.17 14.01 13.65 12.882 12.92 12.703 14.083 13.385 13.765 14.682 13.61 12.635 13.66 12.958 12.66 12.61 12.648 12.628 13.33 12.77 12.875 12.815 12.9 13.318 18.173 19.81 19.97 19.147 17.057 15.783 15.108 15.815 15.637 12.948 12.842 13.507 12.89 12.847 12.75 12.61 12.533 12.595 12.54 12.663 18.217 19.722 20.202 17.91 12.517 12.455 12.533 13.135 14.493 12.72 12.828 12.77 12.717 12.737 12.708 12.868 13.02 13.055 13.115 13.15 13.125 13.177 13.297 13.32 13.368 13.227 13.257 13.318 13.625 13.485 13.493 13.82 14.06 13.44 13.385 13.82 14.735 13.927 13.542 14.512 13.425 13.435 13.44 13.475 13.483 17.76 15.915 13.515 13.54 13.538 13.517 14.135 16.622 17.76 17.69 16.585 13.628 13.543 13.712 13.583 13.665 13.653 14.08 14.007 13.865 15.413 13.698 13.745 13.663 16.587 17.71 17.775 16.673 14.017 13.6 13.657 13.648 13.74 14.045 13.962 13.757 14.335 13.672 13.655 13.648 15.132 15.458 15.753 15.825 15.238 13.352 13.198 13.125 12.898 12.81 12.81 12.783 12.823 12.868 12.875 14.517 16.677 17.31 16.407 14.675 13.73 12.965 13.025 12.995 13.265 13.163 13.273 14.5 13.283 13.37 13.278 13.27 13.222 13.22 14.045 14.852 15.302 15.238 13.05 12.898 13.068 12.705 12.57 12.605 12.568 12.667 12.815 12.92 13.023 13.43 15.34 14.99 14.012 13.432 13.56 13.587 13.725 13.483 13.993 14.465 13.85 13.427 13.365 13.488 13.403 13.682 15.86 13.76 13.485 13.443 13.392 13.385 13.423 13.53 13.51 13.49 13.49 13.495 13.483 13.5 13.49 13.525 13.573 14.158 13.708 13.66 13.688 13.722 13.958 14.005 13.877 13.745 13.725 13.682 13.663 13.685 13.733 13.755 13.788 13.788 13.788 14.265 14.26 14.13 14.288 13.983 14.068 14.102 14.082 14.04 14.043 14.757 17.903 19.825 20.292 20.755 16.587 17.75 20.775 21.14 21.048 20.575 20.122 18.54 14.708 13.975 15.483 14.41 14.042 14.052 14.045 14.132 15.21 16.75 15.74 14.455 14.19 14.315 14.257 14.733 19.735 20.78 21.132 20.042 17.325 14.382 14.052 14.148 14.09 14.11 14.128 14.09 13.923 13.86 13.793 13.815 13.833 13.85 13.868 13.95 14.212 14.355 16.525 14.573 14.097 14.083 14.155 13.94 13.955 14.863 14.983 15.682 15.89 18.535 18.368 20.007 20.362 20.525 20.388 20.075 19.71 18.638 15.945 14.125 15.18 14.533 16.577 15.69 14.443 14.32 14.385 14.672 13.962 13.895 13.852 13.798 13.753 13.717 13.722 13.682 13.667 13.698 13.733 13.967 13.943 13.958 13.922 17.147 13.927 13.882 13.83 13.807 13.79 13.778 13.765 13.73 13.695 13.667 13.637 13.658 13.705 14.083 14.253 13.943 13.618 14.385 14.8 14.443 14.255 13.163 13.028 13.003 13.007 13.038 13.07 13.163 13.255 13.337 13.417 13.453 13.495 13.503 13.477 14.448 13.967 13.4 13.407 13.37 13.32 13.3 13.677 13.172 13.123 13.108 13.108 12.962 13.028 13.35 13.448 12.98 12.927 13.37 13.293 15.608 13.6 14.688 18.6 19.382 16.542 13.255 12.737 12.66 12.875 15.035 12.608 12.892
11.91 11.868 11.842 11.78 11.727 11.715 11.727 11.727 12.267 12.462 11.855 12.162 11.74 11.77 11.802 11.858 11.925 11.943 11.935 11.823 12.663 11.82 12.155 12.983 13.445 11.868 12.087 13.845 14.377 17.888 17.435 16.968 15.25 12.818 12.835 12.837 12.792 12.62 12.938 15.472 16.272 16.12 15.69 14.065 13.623 12.557 12.618 13.222 14.17 13.625 12.608 12.858 12.635 12.623 12.58 12.628 12.775 13.38 13.003 12.885 12.767 13.323 14.94 19.087 20.347 19.917 18.64 16.038 14.945 13.725 13.102 13.608 13.02 12.975 12.84 12.743 12.73 12.658 12.585 12.595 12.648 12.58 12.632 15.25 20.657 19.925 16.237 12.7 12.653 12.807 13.653 13.585 12.852 12.773 12.725 12.695 12.718 12.693 12.852 13.078 12.967 13.122 13.233 13.198 13.172 13.172 13.198 13.22 13.185 13.245 13.443 13.96 13.717 13.575 14.275 13.855 13.545 13.427 13.427 13.642 13.488 13.535 13.528 14.41 13.767 13.445 13.48 15.273 17.858 14.745 13.515 13.523 13.51 13.65 13.535 13.557 14.725 15.67 15.05 13.538 13.623 13.757 13.722 13.685 13.613 13.67 13.625 13.885 13.99 13.548 13.762 14.605 16.892 17.968 17.483 16.105 13.682 13.913 13.675 13.672 14.14 14.5 16.467 13.715 14.04 13.623 13.648 13.577 15.747 15.858 15.847 15.667 14.175 13.557 13.15 13.003 12.885 12.805 12.83 12.792 12.85 12.87 12.852 12.852 14.028 14.865 15.03 13.222 12.948 12.948 12.958 12.998 13.028 13.13 13.622 14.49 13.26 13.27 13.327 13.68 13.538 13.083 13.165 14.835 15.288 14.912 12.988 12.905 12.802 12.66 12.592 12.615 12.59 12.74 12.855 12.948 13.055 14.083 15.395 15.493 14.955 13.872 13.465 13.525 13.663 13.792 13.733 13.318 13.337 13.507 13.445 13.52 13.47 13.73 15.92 15.337 14.208 13.93 13.51 13.497 13.44 13.523 13.515 13.52 13.505 13.485 13.483 13.483 13.467 13.523 13.885 17.083 16.647 15.385 14.375 14.09 13.788 13.94 13.628 13.752 13.985 15.273 13.75 13.743 13.747 13.725 13.765 13.81 13.827 14.212 15.015 13.995 13.945 13.983 14.062 14.1 14.042 14.068 14.118 14.092 14.962 16.82 18.568 18.61 14.89 18.423 19.638 20.202 20.688 21.115 21.093 18.435 14.158 14.158 14.495 14.105 14.038 14.045 14.945 14.943 16.68 16.635 16.688 15.903 14.21 14.243 14.01 16.655 20.228 21.163 20.632 18.995 15.4 14.148 14.035 14.182 14.105 14.065 14.095 14.007 13.918 13.835 14.327 13.802 13.8 16.548 14.093 13.807 13.783 15.45 16.515 16.525 14.462 14.312 14.378 14.007 14.028 14.255 14.11 14.033 13.892 13.85 14.825 18.035 19.295 19.94 20.305 20.517 20.423 20.12 17.108 14.943 14.798 15.962 16.58 16.562 16.565 15.745 14.743 14.327 14.59 14.118 14.055 13.852 13.807 13.792 13.775 13.757 13.733 13.77 13.753 13.737 13.762 13.882 14.67 19.028 19.927 14.188 13.958 13.895 13.835 13.818 13.783 13.765 13.835 13.752 13.68 13.637 13.62 13.648 13.685 13.727 14.045 13.887 13.825 13.81 14.278 15.302 14.257 13.46 13.165 13.172 13.238 13.253 13.292 13.422 13.495 13.525 13.552 13.56 13.512 13.47 13.42 13.39 13.38 13.39 13.368 13.408 13.487 13.243 13.41 13.14 13.265 13.18 13.542 13.488 12.967 12.892 12.927 12.91 12.837 15.52 18.122 17.82 17.868 14.61 15.055 13.327 12.735 12.657 14.038 14.032 12.62 12.618
12.62 12.677 12.342 12.142 12.87 12.56 11.762 11.715 11.675 11.67 11.708 12.257 11.92 12.34 12.208 11.73 11.773 11.823 11.805 11.945 12.4 11.74 11.76 12.023 11.925 11.895 12.247 12.775 15.948 17.465 17.88 18.007 14.745 12.722 12.745 12.773 12.688 12.605 12.878 13.648 15.015 16.872 17.073 16.61 16.17 15.638 14.125 13.267 12.555 12.595 12.632 12.613 12.57 12.52 12.597 12.608 12.552 12.602 13.12 13.137 12.858 13.06 17.388 19.54 20.455 19.443 17.538 15.84 14.16 13.825 12.877 12.858 12.815 12.79 12.76 12.708 12.712 12.807 13.003 12.792 12.717 12.542 12.67 12.91 13.305 13.882 13.43 12.645 12.705 12.795 13.875 12.815 12.745 13.35 14.493 12.722 12.685 12.722 12.738 13.057 13 13.07 13.105 13.153 13.11 13.095 13.062 13.12 13.173 13.265 13.455 13.465 13.398 13.453 13.477 13.562 13.462 13.465 13.443 13.523 13.51 13.48 13.562 14.382 15.015 13.957 13.47 16.17 16.962 14.368 13.52 13.547 13.515 13.528 13.542 13.557 13.56 13.722 14.685 14.417 13.755 13.583 13.55 13.56 13.795 13.577 13.565 13.557 13.555 13.533 13.538 14.925 17.2 17.987 17.2 15.323 13.8 13.765 13.747 13.898 14.26 15.895 16.21 13.632 13.587 13.568 13.523 13.878 15.23 15.862 15.833 14.975 13.46 13.432 13.932 13.377 12.865 12.825 12.833 12.818 12.882 12.868 12.858 13.27 15.225 15.253 14.852 13.21 13.073 12.99 12.972 13.015 13.165 14.392 14.073 13.952 14.517 13.412 13.218 13.698 13.57 13.308 13.043 14.997 15.273 14.055 13.092 12.89 12.788 12.637 12.618 12.625 12.615 12.8 12.927 12.993 13.097 15.083 15.415 15.135 13.995 13.568 13.493 13.548 13.535 14.087 13.745 13.372 13.415 13.45 13.458 13.453 13.415 13.61 14.635 15.288 15.19 13.575 13.648 13.858 13.733 13.452 13.425 13.442 13.445 13.443 13.445 13.45 13.45 13.538 15.823 18.173 17.788 17.438 17.087 16.517 15.525 14.3 13.725 14.097 14.26 14.96 14.42 13.852 13.842 13.852 13.825 13.788 13.815 13.85 13.868 13.872 14.49 15.042 13.938 14.013 14.025 14.087 14.12 14.36 14.323 14.27 15.04 14.403 14.468 15.858 14.802 16.97 18.987 20.11 20.59 14.58 14.097 14.267 14.17 14.055 14.047 14.62 14.59 15.807 15.302 14.382 16.042 15.517 14.352 14.375 14.305 19.657 20.748 21.097 20.112 16.31 14.167 14.042 14.35 14.108 14.092 14.055 14.045 13.943 13.89 13.792 13.945 13.745 16.372 19.495 20.252 17.765 14.485 15.6 16.51 16.19 14.507 14.63 14.26 14.523 14.855 14.43 13.922 13.91 13.895 13.89 13.898 14.005 15.95 17.655 19.565 19.875 20.218 20.503 14.188 14.365 14.14 15.2 16.055 16.567 16.57 16.573 15.547 14.528 14.302 14.448 14.385 14.195 14.005 13.818 13.828 13.827 13.818 14.02 13.945 13.775 13.757 13.767 14.207 16.767 18.353 15.235 14.435 13.948 13.948 13.9 13.83 13.807 13.788 13.82 13.76 13.7 13.663 13.62 13.6 13.632 13.688 13.73 13.823 13.78 14.653 15.94 13.892 14.745 14.84 14.253 13.523 13.517 13.45 13.477 13.557 13.745 13.765 13.913 13.645 13.57 13.512 13.462 13.413 13.4 13.39 13.43 13.417 13.318 13.27 13.28 13.128 13.105 13.872 13.613 13.747 12.905 12.913 13.195 14.57 12.837 14.12 15.788 16.837 14.69 13.935 12.913 12.73 12.693 14.257 12.945 12.677 13.278
12.802 12.778 13.37 12.385 12.012 11.983 11.855 11.818 11.795 11.715 11.67 11.637 11.642 11.745 12.08 11.653 12.27 12.16 11.765 11.722 11.765 11.75 11.767 12.023 12.568 11.945 12.422 13.073 15.27 16.142 16.625 17.01 12.778 12.727 12.733 12.705 12.645 12.778 12.985 12.63 14.892 18.062 18.423 17.968 17.54 17.102 16.65 16.227 13.24 12.943 13.245 12.597 12.525 12.51 12.6 12.552 12.555 12.618 12.663 13.08 13.602 13.823 18.765 19.675 19.993 18.995 16.747 15.398 13.1 13.505 12.86 12.823 12.788 13.158 13.297 12.677 12.67 12.693 12.677 12.868 13.02 12.79 12.99 12.95 13.085 12.868 12.86 12.642 12.672 12.71 14.038 12.675 12.765 19.105 22.423 16.538 12.717 12.74 12.835 13.632 13.305 13.062 13.108 13.118 13.285 13.285 13.093 13.17 13.21 13.19 13.167 13.307 14.988 14.248 13.4 13.455 13.573 13.525 13.497 13.467 13.475 13.535 14.235 16.225 15.132 13.807 15.48 18.385 16.167 13.507 13.533 13.538 13.542 13.597 13.613 13.645 13.632 13.943 15.36 14.932 15.738 16.093 15.028 14.077 14.483 13.547 13.525 13.528 13.535 13.485 13.517 16.228 17.507 17.983 16.865 14.43 13.505 13.872 14.302 14.203 13.95 15.172 14.365 13.595 13.53 13.985 14.495 15.698 15.972 15.225 14.602 13.602 13.253 13.123 13.023 12.948 12.847 12.85 12.83 12.863 12.913 12.87 12.85 14.285 15.238 15.267 15.167 13.63 13.07 13.205 13.807 13.17 13.145 13.753 14.485 13.365 13.222 13.225 13.212 13.275 13.082 16.272 16.505 15.775 14.198 13.363 13.585 13.773 12.773 12.637 12.635 12.63 12.702 12.887 13.012 13.255 13.19 14.37 15.24 14.852 13.56 13.903 14.073 13.755 14.515 14.952 13.472 13.45 13.48 13.52 13.538 13.525 13.5 13.5 13.535 13.565 13.715 13.533 13.533 13.525 13.51 13.325 13.275 13.273 13.28 13.33 13.345 13.385 13.47 13.575 16.595 17.938 18.237 18.317 18.195 17.837 17.467 17.12 16.775 14.057 14.622 14.727 14.72 13.932 13.917 13.932 14.75 13.92 13.885 13.833 13.83 13.863 13.9 13.905 13.962 14.615 14.302 14.01 14.095 14.23 14.32 14.132 14.15 14.222 14.202 14.087 13.977 14.455 14.358 17.355 17.382 14.455 15.762 15.118 14.14 14.042 14.05 14.045 14.267 14.635 14.233 14.25 14.238 14.305 14.363 14.28 16.417 20.017 21.1 20.675 19.648 14.52 14.38 14.852 14.695 14.108 14.057 14.038 14.015 13.935 13.86 13.818 13.827 14.417 18.532 19.84 20.388 19.833 17.587 13.797 14.72 14.778 14.167 14.195 14.062 14.04 14.11 15.15 14.35 13.945 13.95 13.938 13.95 13.98 13.917 14.15 15.32 17.58 19.483 16.935 13.88 14.017 14.325 14.827 14.927 15.002 16.115 16.1 14.255 14.052 14.16 14.615 14.86 14.54 14.185 14.193 13.93 13.892 13.868 13.868 13.925 13.837 13.872 13.805 13.703 13.675 16.062 15.095 15.82 13.952 13.972 13.96 13.967 13.89 13.833 13.795 13.765 13.753 13.715 13.67 13.635 13.595 13.583 13.62 13.66 13.7 14.29 14.703 13.693 14.7 14.608 14.94 15.738 14.995 13.778 13.53 13.773 14.837 14.6 13.905 13.827 13.722 13.622 13.568 13.49 13.435 13.42 13.435 13.423 13.38 13.34 13.198 13.132 13.198 13.26 14.153 14.475 13.102 12.86 14.427 17.23 14.673 13.355 15.61 17.557 13.46 13.132 12.83 12.757 12.77 12.97 12.837 12.747 13.062
11.915 11.943 12.155 12.065 11.917 11.905 11.877 12.177 12.202 11.837 11.783 11.745 11.693 11.648 11.637 11.675 11.74 12.09 11.797 11.733 11.747 11.763 11.94 12.69 12.07 12.125 12.64 13.677 14.72 13.163 14.188 14.44 12.718 12.737 12.733 12.693 12.65 12.712 12.795 12.615 15.507 17.72 18.163 18.575 18.638 18.443 18.025 16.695 13.052 12.552 12.828 12.562 12.5 12.512 12.568 12.515 12.552 12.64 13.195 12.875 12.765 13.1 16.22 18.237 19.055 18.09 16.157 14.012 13.012 12.86 12.798 12.833 12.855 15.36 16.193 12.663 12.635 12.637 12.685 13.16 13.042 12.73 12.74 12.73 12.903 12.705 12.722 12.747 12.738 13.455 13.55 12.727 12.773 19.567 23.267 20.128 12.975 13.057 12.932 15.252 14.12 13.05 13.085 13.075 13.698 13.833 13.177 13.238 13.265 13.26 13.24 13.237 14.307 15.405 13.343 13.378 13.448 13.505 13.747 13.99 13.555 13.49 13.523 14.523 14.278 13.835 16.485 19.248 15.592 13.54 13.578 13.573 13.592 13.623 13.632 13.645 13.608 13.56 13.505 13.52 17.577 17.462 17.125 16.792 16.472 14.985 14.585 13.698 13.485 13.458 13.87 16.702 17.8 17.685 16.483 13.72 13.52 13.55 13.58 13.962 13.885 14.42 13.625 13.552 13.595 13.6 14.307 16.63 17.715 17.628 16.472 13.45 13.158 13.038 12.96 12.882 12.85 12.86 12.823 12.89 12.908 12.863 13.65 14.003 15.253 15.238 15.012 13.262 13.07 14.515 15.622 13.975 13.142 13.16 14.5 13.323 13.265 13.23 13.185 13.398 13.755 16.647 17.708 17.343 16.253 13.128 13.2 13.273 12.775 12.637 12.667 12.65 12.855 13.153 12.975 13.073 13.157 13.43 13.4 13.512 13.597 13.695 14.153 15.05 13.637 13.802 13.507 13.515 13.538 13.548 13.597 13.602 13.568 13.59 13.605 13.613 13.61 13.6 13.585 13.557 13.458 13.273 13.247 13.227 13.208 13.375 13.41 13.28 13.465 13.538 15.512 16.665 17.2 17.548 17.915 18.247 18.33 18.21 17.237 13.583 14.775 15.238 14.485 14.003 14.012 14.012 14.225 14.235 14.045 13.965 13.92 13.88 13.87 13.905 13.935 13.957 14.153 14.552 14.055 14.028 14.102 14.185 14.53 14.128 14.48 14.05 14.05 14.23 14.06 14.43 14.163 14.267 14.28 14.77 14.092 14.052 14.045 14.073 14.523 15.093 14.47 14.227 14.173 14.167 14.062 13.975 15.352 17.443 19.14 20.222 18.823 15.505 14.005 14.398 14.085 14.092 14.04 14.017 13.952 13.908 13.823 14.073 13.915 14.485 19.448 20.195 20.23 19.485 14.78 13.792 13.835 13.94 14.267 14.188 14.048 14.015 13.988 13.98 13.962 14.155 14.26 13.993 14.02 13.9 13.85 13.89 13.927 16.318 16.36 13.917 14.163 14.025 14.042 14.688 14.738 15.23 14.653 14.705 14.305 14.177 14.062 14.06 14.167 15.135 14.542 14.18 14.293 14.59 14.085 13.932 13.925 13.913 13.885 13.807 13.68 13.675 13.66 14.222 13.73 14.483 13.868 16.123 15.59 14.087 13.935 13.885 13.818 13.79 13.75 13.737 13.69 13.648 13.612 13.577 13.57 13.615 13.64 13.665 13.715 14.93 14.898 13.775 14.63 15.333 14.28 14.882 14.443 14.828 14.472 13.868 13.78 13.815 14.562 13.613 13.557 13.515 13.497 13.457 13.438 13.403 13.352 13.205 13.16 13.237 13.765 14.872 15.237 13.282 13.03 17.493 19.525 18.225 13.115 18.945 17.38 12.938 12.89 13.16 12.8 13.002 12.967 12.825 12.78 14.073
11.917 11.917 11.915 11.92 11.905 11.9 11.917 13.038 13.01 12.163 11.885 11.887 11.945 12.118 12.033 11.698 11.682 11.72 11.727 11.745 11.765 11.765 12.092 12.67 12.007 12.345 12.91 13.26 13.455 12.847 12.78 12.773 12.842 12.78 12.733 12.682 12.64 12.788 12.89 13.485 15.78 16.368 16.465 17.26 17.688 18.132 18.54 14.887 12.552 13.165 12.84 12.555 12.498 12.52 12.535 12.5 12.552 12.562 12.59 12.602 12.622 12.725 12.79 13.007 14.318 15.18 15.568 13.062 12.925 12.988 12.798 12.767 14.48 14.568 13.273 12.95 13.185 12.62 13.375 13.217 12.74 12.685 12.64 12.67 12.675 12.685 12.677 12.707 12.76 13.925 12.708 12.727 12.778 13.658 15.693 13.705 13.193 13.278 13.042 14.98 14.3 13.243 13.618 14.285 13.727 15.177 13.167 13.302 13.315 13.3 13.295 13.913 15.675 13.773 13.315 13.337 13.405 13.445 13.5 13.602 13.635 13.8 13.67 13.545 13.51 13.792 14.83 13.847 13.493 13.472 13.568 13.575 13.555 13.565 13.6 13.615 13.655 13.605 13.505 15.005 17.782 18.028 18.038 17.895 17.57 17.228 16.903 16.565 14.31 14.315 14.052 15.663 17.98 17.382 15.7 13.525 13.542 13.56 13.587 15.01 14.23 13.823 14.115 13.62 13.795 16.015 15.997 16.938 17.927 17.292 15.773 13.325 13.155 12.995 12.86 12.85 12.863 12.87 12.833 12.865 12.91 13.52 12.965 13.292 15.267 15.29 14.015 13.02 13.2 14.455 15.42 13.845 13.542 14.337 14.345 13.783 13.28 13.297 13.215 13.257 15.722 16.995 17.802 16.983 15.753 13.057 13.033 13.055 12.795 12.655 12.68 12.653 12.845 13.028 13.097 13.165 13.293 15.108 14.57 13.365 13.752 13.512 13.495 13.535 13.53 14.083 13.575 13.575 13.583 13.597 13.635 13.685 13.67 13.653 13.655 13.665 13.653 13.648 13.618 13.597 13.417 13.27 13.238 13.215 13.205 14.163 13.45 13.315 13.525 13.712 13.59 13.675 15.002 15.472 16.83 17.175 17.535 17.888 15.653 13.682 14.347 16.305 16.753 15.892 14.755 14.167 14.068 14.09 14.1 13.998 13.983 14.288 13.995 13.945 13.91 13.923 13.97 13.995 14.045 13.99 13.988 14.048 14.113 14.135 14.153 14.11 14.247 14.23 14.225 14.253 14.708 15.515 14.247 14.172 14.052 14.068 14.04 14.22 15.07 15.015 15.53 15.583 14.165 14.102 13.988 15.737 18.435 16.868 16.185 17.17 17.285 15.517 14.34 14.425 14.083 14.075 14.01 14.208 15.578 13.948 14.125 13.805 14.075 18.24 19.79 20.403 19.908 18.783 13.757 13.79 14.055 13.948 14.003 14.158 14.583 14.007 13.97 13.945 13.92 13.915 13.925 13.96 14.375 14.137 13.892 14.195 14.115 13.917 14.083 13.908 14.033 13.922 13.932 14.073 14.515 14.215 14.925 14.08 14.11 14.695 14.113 14.077 14.065 14.032 14.135 14.792 15.18 14.157 14.41 14.637 14.082 13.958 13.917 13.812 14.068 13.783 13.72 13.693 13.68 13.653 14.155 16.345 17.675 16.993 16.538 14.1 13.917 13.88 13.807 13.78 13.735 13.705 13.667 13.635 13.595 13.555 13.533 13.578 13.615 13.655 13.693 13.738 13.693 13.743 13.605 13.63 15.198 15.523 14.317 13.872 13.917 14.04 15.915 15.75 14.75 13.84 13.592 13.66 13.512 13.462 13.41 13.293 13.265 13.328 13.547 15.312 14.35 13.278 13.618 14.395 15.998 13.477 14.852 19.103 15.46 12.878 13.352 12.985 13.015 13.448 12.975 12.878 12.92 13.648
15.75 12.708 11.913 11.882 11.88 11.905 11.925 12.1 12.208 11.99 11.92 11.927 11.913 12.188 12.495 11.958 12.632 11.972 11.735 11.75 11.77 11.763 12.477 13.455 12.055 12.568 13.102 13.1 12.88 12.842 12.815 12.79 12.765 12.775 12.743 12.71 12.663 12.61 12.58 12.57 13.023 13.952 15.125 15.868 16.327 16.618 17.035 12.575 12.548 12.68 12.618 12.538 12.47 12.515 12.49 12.5 12.533 12.535 12.56 12.56 12.623 12.62 12.632 12.885 12.84 12.845 12.84 13.23 13.163 12.835 12.757 12.75 12.96 13.285 12.717 13.583 13.417 12.955 12.795 13.762 12.75 12.68 12.637 12.648 12.55 12.557 12.583 12.69 12.872 13.15 12.715 13.087 12.882 12.83 12.845 12.985 13.245 13.177 14.288 14.935 15.455 16.09 16.347 16.538 14.493 15.137 13.323 14.345 15.665 14.967 15.582 15.08 15.722 13.74 13.347 13.373 13.432 13.452 13.517 13.505 13.505 13.505 13.557 13.76 14.555 14.135 15.038 13.79 13.42 13.453 13.472 13.5 13.52 13.547 13.57 13.583 13.57 13.595 13.517 15.137 16.577 16.99 17.305 17.667 17.99 18.045 17.958 17.66 15.352 15.73 15.002 13.472 13.975 14.575 14.6 13.528 13.555 13.557 13.847 15.517 13.625 13.568 13.562 13.688 14.502 15.935 16.31 17.255 17.892 16.97 14.705 13.31 13.122 12.972 12.888 12.885 12.887 12.89 12.86 12.823 12.892 13.39 13.255 14.195 15.275 15.302 14.235 12.99 12.97 13.18 13.895 14.243 14.635 14.48 13.792 14.07 13.217 13.24 13.225 13.977 16.237 17.368 17.718 16.635 14.165 13.045 13.025 12.908 12.785 12.675 12.695 12.698 13.062 13.06 13.158 13.267 13.83 16.66 17.765 17.382 15.055 13.682 13.512 13.65 13.545 13.818 13.605 13.628 13.622 13.635 13.675 13.708 13.717 13.69 13.693 13.715 13.72 13.685 13.645 13.59 13.4 13.283 13.235 13.205 13.21 13.503 13.2 13.38 13.568 13.925 13.66 13.7 13.682 13.825 15.86 16.217 15.632 16.745 14.56 13.835 14.068 16.193 18.222 17.908 17.255 16.425 14.962 14.15 14.083 14.025 14.033 14.113 14.6 14.712 14.173 13.99 13.95 13.948 13.988 14.015 14.035 14.033 14.033 14.042 14.092 14.15 14.658 14.33 14.302 14.368 14.333 14.265 14.233 14.07 14.055 14.055 14.108 14.233 14.227 15.355 16.48 15.907 14.585 14.1 14.285 18.56 20.455 21.085 19.907 16.19 15.007 14.743 14.328 14.055 14.085 14.062 13.993 15.745 17.802 14.477 14.805 13.788 15.632 19.395 20.118 20.285 19.54 17.337 15.125 14.048 16.145 15.722 14.595 14.06 14.505 14.462 13.938 13.907 13.88 13.878 13.875 14.96 14.862 14.54 14.305 14.075 13.975 14.153 14.493 15.035 13.91 13.847 13.903 13.923 13.927 13.95 14.41 14.318 14.035 14.108 14.033 14.03 14.038 13.967 13.905 14.148 15.53 14.985 14.307 14.04 14.2 14.365 14.118 13.757 13.86 13.975 13.922 13.83 13.762 13.725 13.705 13.675 14.225 17.525 17.188 16.19 14.267 13.925 13.913 13.855 13.78 13.743 13.7 13.675 13.64 13.6 13.565 13.538 13.523 13.56 13.605 13.663 13.735 13.667 13.573 13.575 13.9 14.828 15.21 15.123 14.443 15.8 15.7 15.655 15.703 15.712 15.645 14.543 13.575 13.512 13.468 13.43 14.017 13.398 13.288 13.78 13.37 14.033 13.34 13.095 12.955 13.648 18.833 18.96 13.637 12.91 12.89 12.915 13.318 14.462 13.733 13.023 12.877 13.03
20.135 18.57 17.528 13.52 13.21 12.575 11.915 11.9 11.9 11.905 11.95 11.94 11.93 11.935 11.927 11.905 11.872 12.417 11.745 11.75 11.767 11.757 12.46 13.36 12.205 12.81 13.157 13.023 12.903 12.863 12.84 12.82 12.81 12.805 12.77 12.703 12.642 12.645 12.54 12.555 12.57 12.56 12.558 12.958 13.828 15.055 14.425 12.523 12.565 12.743 12.533 12.475 12.465 12.493 12.475 12.528 12.568 12.545 12.565 12.562 16.257 16.983 14.438 13.535 13.173 13.398 12.98 14.523 15.19 14.805 13.363 12.757 12.903 12.738 12.722 12.708 12.797 14.525 17.415 14.908 12.745 12.693 12.675 12.638 12.562 12.535 12.548 12.555 12.685 12.67 12.73 12.715 12.997 13.142 12.915 13.33 15.977 16.288 16.55 16.79 17.065 17.298 17.483 17.188 15.14 13.087 14.25 15.438 17.173 16.868 16.455 16.145 15.905 15.608 13.808 13.382 13.42 13.477 13.548 13.535 13.507 13.517 13.793 13.58 14.95 14.578 14.097 13.622 15.9 16.502 14.243 13.507 13.767 14.065 13.703 13.587 13.552 13.542 13.505 13.863 13.62 14.462 15.078 16.565 16.88 17.22 17.552 17.06 13.795 13.89 13.712 13.483 13.503 13.507 13.517 13.562 13.54 13.545 14.503 14.865 13.542 13.533 13.517 13.515 13.475 13.438 16.425 17.592 17.743 16.63 13.908 13.257 13.113 12.955 12.895 12.903 12.915 12.905 12.878 12.847 12.99 13.077 13.087 14.307 14.158 14.408 14.92 12.935 13.273 13 13.023 13.078 13.448 14.215 13.22 13.237 13.247 13.212 13.095 13.438 16.61 17.647 17.382 16.103 13.077 13.035 12.997 12.898 12.75 12.71 12.71 12.753 13.657 13.087 13.175 13.387 15.028 17.01 17.938 17.267 15.403 13.663 13.48 13.53 13.965 13.812 13.618 13.642 13.67 13.698 13.72 13.727 13.735 13.71 13.733 13.755 13.747 13.722 13.653 13.557 13.345 13.283 13.235 13.222 13.208 13.182 13.188 13.448 13.672 15.01 13.91 13.722 13.733 13.898 14.382 14.725 13.565 13.625 13.62 14.36 14.212 17.403 19.327 18.94 18.46 18 17.525 16.967 15.045 14.075 14.095 14.13 14.132 14.497 14.64 14.108 14.062 14.035 13.988 13.988 14.012 14.048 14.068 14.068 14.06 14.078 14.118 14.208 14.27 14.25 14.245 14.155 14.062 14.028 14.052 14.02 14.14 14.892 14.667 14.222 14.88 15.84 14.46 14.727 15.415 19.888 20.968 20.798 19.737 17.6 15.082 14.04 14.298 14.055 14.07 14.042 13.97 13.935 14.302 13.842 14.267 13.757 17.605 19.745 20.4 19.958 18.967 16.513 14.86 14.645 16.427 16.433 15.433 14.038 14.017 13.99 13.93 13.895 13.873 13.885 13.875 13.863 14.253 14.052 13.855 14.007 14.722 14.225 14.545 13.868 13.795 13.82 13.868 13.885 13.913 14.148 14.358 14.887 14.675 15.105 14.17 14.035 13.95 14.7 14.92 14.11 13.995 13.863 13.865 14.382 14.262 14.02 13.852 13.858 13.998 13.957 14.66 13.927 13.785 13.793 13.783 13.762 13.727 13.823 13.75 15.3 15.038 14.14 18.733 19.552 13.962 13.835 13.785 13.717 13.685 13.655 13.632 13.593 13.552 13.52 13.512 13.535 13.573 13.512 13.505 13.568 13.573 13.5 13.462 14.01 15.108 17.068 15.54 15.533 15.19 16.057 16.307 15.885 14.35 13.585 13.535 13.528 13.555 13.427 13.68 14.837 13.378 14.065 13.443 13.167 13.042 15.493 19.63 18.757 13.163 16.8 14.165 13.305 14.255 14.51 14.898 13.095 12.915 14.19
20.927 20.653 20.378 20.05 15.67 14.86 17.843 16.032 15.115 12.705 11.913 11.938 11.927 11.945 11.922 11.938 11.905 11.828 11.753 11.76 11.765 12.868 13.033 12.755 12.452 13.052 13.243 13.02 12.995 12.88 12.84 12.823 12.818 12.82 12.773 12.712 12.547 12.567 15.128 14.102 12.785 12.54 12.552 12.57 12.555 12.56 12.562 12.548 12.538 12.507 12.505 12.435 12.47 12.458 12.465 12.807 14.372 13.932 12.597 12.77 18.188 19.302 18.99 18.47 14.578 13.023 12.738 13.208 13.887 14.545 13.177 12.778 12.75 12.727 12.712 12.702 12.708 19.097 22.372 17.952 12.927 12.712 12.7 12.64 12.57 12.555 12.548 12.58 12.642 12.68 12.895 13.193 12.833 12.835 12.868 13.005 16.173 17.33 17.54 17.5 17.36 17.13 16.9 16.625 15.815 13.105 14.025 16.628 17.722 17.875 17.698 17.302 16.908 16.528 15.363 14.43 13.375 13.505 13.585 13.565 13.523 13.525 13.538 13.778 15.345 15.962 14.752 14.005 18.085 18.333 15.682 13.8 13.695 13.788 13.565 13.87 14.15 13.812 14.102 13.525 13.562 13.552 13.84 14.468 13.903 14.977 16.452 15.157 13.575 13.562 13.703 13.69 13.507 13.505 13.548 13.57 13.545 13.538 15.048 14.002 13.485 13.503 13.487 13.48 13.435 14.28 16.795 17.862 17.443 16.31 13.497 13.37 13.09 13.462 12.977 12.92 12.93 12.913 12.88 12.905 13.15 12.92 13.698 16.193 17.28 15.908 13.727 12.86 12.972 12.988 13.007 13.055 13.275 13.583 13.235 13.222 13.215 13.17 13.068 14.615 16.948 17.815 17.028 15.158 13.055 13.015 12.975 12.892 12.74 12.73 12.725 12.788 13.427 13.69 13.517 13.43 15.948 17.36 17.94 16.935 14.538 13.637 13.47 13.528 14.138 14.97 13.96 13.67 13.67 13.712 13.722 13.727 13.74 13.765 13.778 13.793 13.84 13.745 13.663 13.52 13.37 13.278 13.243 13.222 13.212 13.163 13.253 13.448 13.578 13.892 14.102 13.878 13.847 13.965 13.818 13.88 13.61 13.58 13.72 14.073 14.095 17.292 18.873 19.247 19.365 19.048 18.57 18.095 14.172 15.395 15.395 14.555 14.158 14.682 14.16 14.177 14.145 14.343 14.38 14.135 14.042 14.023 14.038 14.075 14.1 14.095 14.075 14.08 14.105 14.11 14.08 14.023 14.017 14.017 14.023 14.007 14.15 14.23 14.615 14.45 14.215 14.205 14.165 14.267 18.218 20.397 21.09 20.312 17.288 14.783 14.02 14.085 14.078 14.083 14.163 14.033 13.953 13.903 13.847 13.863 13.783 15.157 19.32 20.068 20.327 19.63 17.325 16.085 13.85 13.92 15.448 16.408 14.845 14.172 14.013 13.938 13.915 13.915 13.915 13.903 13.887 13.87 13.852 13.84 13.818 13.798 13.81 13.812 13.833 13.918 13.765 13.81 13.847 13.877 13.908 14.23 15.05 14.658 16.265 16.455 16.265 14.292 14.065 15.047 19.425 20.17 16.968 13.788 14.137 14.005 13.818 14.013 13.753 13.753 13.8 13.86 13.877 13.833 13.812 13.818 13.825 13.83 13.805 13.76 13.71 13.882 14.017 13.785 17.845 19.372 14.597 13.855 14.19 14.59 13.755 13.695 13.66 13.625 13.6 13.57 13.528 13.51 13.48 13.443 13.448 13.55 13.585 13.56 13.493 13.735 13.86 14.785 15.86 15.047 15.795 16.142 16.432 16.212 15.955 15.592 15.008 13.627 13.547 13.41 15.807 17.33 16.483 13.997 13.33 13.32 13.96 15.19 18.94 16.517 13.648 19.045 19.243 17.84 16.948 15.637 15.663 14.983 12.887 14.637
21.038 21.188 21.153 20.278 19.538 19.658 20.618 20.345 20.077 19.525 11.882 11.898 11.91 11.91 11.905 11.925 11.88 12.655 12.035 11.763 11.767 12.975 14.65 13.02 13.882 13.155 13.41 13.073 13.765 14.625 14.267 13.338 12.783 12.783 12.858 14.278 13.352 13.54 16.155 16.375 15.95 14.715 13.837 12.932 12.557 12.565 12.56 12.557 12.538 12.49 12.423 12.398 12.455 12.443 12.467 13.105 12.562 13.08 13.955 15.025 18.877 20.015 19.61 17.385 15.523 13.503 12.778 12.767 12.89 13.062 13.37 13.122 13.158 12.782 12.68 12.64 13.222 20.347 20.495 16.712 12.708 12.665 12.627 12.642 12.618 12.573 12.593 12.597 12.677 12.705 13.18 14.86 13.093 12.815 12.85 12.943 15.195 16.86 16.685 16.43 16.188 15.622 14.972 14.375 13.72 13.025 13.735 16.132 16.715 17.103 17.475 17.845 17.915 17.735 17.237 15.435 13.435 13.488 13.58 13.573 13.532 13.532 13.535 13.605 13.828 14.002 14.38 13.977 15.305 16.285 14.878 14.335 13.693 15.71 15.123 19.908 18.535 14.218 13.64 13.538 13.552 13.57 14.52 14.255 13.593 13.56 13.557 13.615 13.568 13.56 13.565 13.64 13.555 13.513 13.503 13.55 13.523 13.52 15.485 13.503 13.507 13.517 13.51 13.465 13.435 15.14 17.132 17.938 17.128 14.987 13.283 13.205 13.042 13.825 12.932 12.938 12.932 13.422 13.163 12.97 13.055 12.953 14.667 16.54 17.377 16.55 14.55 12.887 12.97 12.972 13.042 13.195 14.01 13.72 13.248 13.22 13.185 13.12 13.057 15.84 17.315 17.71 16.677 14.337 13.065 13.035 12.962 12.877 12.712 12.75 12.735 12.86 13.17 13.275 13.26 14.02 16.573 17.667 17.722 16.555 13.682 13.413 13.515 13.56 13.667 14.288 13.983 14.073 14.01 13.855 13.782 13.688 13.702 13.733 13.795 13.83 14.682 13.775 13.698 13.573 13.467 13.307 13.235 13.237 13.212 13.16 13.335 13.485 13.62 13.755 15.54 16.048 15.605 14.67 13.892 14.043 14.042 13.878 13.97 14.142 14.833 17.265 17.74 18.233 18.72 19.185 19.385 17.657 14.105 16.528 17.673 17.128 15.818 14.378 14.155 14.153 14.148 14.648 14.198 15.137 14.81 14.505 14.233 14.057 14.06 14.083 14.105 14.1 14.095 14.078 14.055 14.025 14.013 14.023 14.01 13.997 14.1 14.238 14.608 14.297 14.217 14.217 14.19 15.698 19.84 20.948 20.865 19.825 15.837 14.033 14.068 14.078 14.035 14.035 14.097 14.028 13.945 13.882 13.81 14.07 14.2 17.177 19.683 20.378 20.02 19.255 16.435 13.905 14.12 13.995 14.055 14.233 14.253 14.86 13.99 13.935 13.94 13.94 13.945 13.965 13.95 13.898 13.847 13.823 13.823 13.818 13.81 14.362 14.88 14.158 13.79 13.81 13.84 13.868 14.148 15.378 15.233 14.075 15.792 16.443 15.552 13.942 14.788 16.837 19.755 20.455 20.142 19.073 14.583 13.845 13.805 13.765 13.783 13.785 13.795 13.83 13.83 13.818 13.815 13.82 13.812 13.852 13.823 13.792 13.757 13.722 13.665 13.615 14.137 14.507 18.388 15.505 20.08 17.705 13.83 13.792 13.738 13.663 13.628 13.595 13.573 13.578 13.542 13.503 13.458 13.472 13.52 13.555 13.573 13.545 14.167 13.52 13.835 14.98 17.205 16.52 16.235 16.31 15.878 16.257 16.37 13.743 13.462 13.8 19.507 19.302 18.452 14.175 13.493 13.485 13.585 15.05 17.253 14.958 16.415 19.725 20.585 19.972 19.292 18.193 16.395 14.275 13.36 13.952
